ply
format ascii 1.0
element vertex 709
property float x
property float y
property float z
property uchar diffuse_blue
property uchar diffuse_green
property uchar diffuse_red
end_header
784.5226539608631 -850.7395742351245 124.55845133374346 166 181 167
-783.5869048382566 -864.8784144161085 -777.8191502094104 80 78 67
785.8962902077617 -833.4063694620255 131.98661516119182 115 115 109
-783.0731629562436 -873.7708236739286 -780.9416822736728 74 46 45
-783.0731629562436 -873.7708236739286 -780.9416822736728 74 46 45
785.3602991934733 -840.2907593483144 129.04231952496428 110 132 143
-783.6605982019132 -883.2985346199683 -785.1109430160686 176 164 160
-783.866491943189 -880.9818571530044 -784.3550218275074 110 98 116
785.6406668863191 -836.9829864656433 130.46999363183207 65 76 74
788.9782468080238 -799.3057793034998 146.8050839761643 91 90 116
785.8332603970476 -834.6646759408166 131.46829923761953 164 171 168
789.9055352433624 -789.9377831870984 150.9201514023828 94 117 119
785.7709613500256 -835.5656505833576 131.0874376916019 171 180 184
-783.5968399911742 -884.3926165583825 -785.4860190462826 62 62 62
-782.9299825230744 -890.8056812251784 -787.5061622720204 242 242 228
786.9601442575284 -821.625454243595 137.10672064744986 139 138 134
785.5153328868073 -839.0720189140559 129.59764565217282 51 64 72
-784.0308004538008 -879.4340383124871 -783.8642990350812 102 56 62
786.898923966151 -822.5254274290552 136.72699286965468 197 220 215
785.3049835394024 -842.113784627747 128.31155420246301 78 102 122
785.3049835394024 -842.113784627747 128.31155420246301 78 102 122
-782.7468757312239 -891.9623836490879 -787.8197353178688 168 183 179
785.6841815071479 -837.3884607296138 130.3390844910754 123 133 150
785.9928566274754 -833.5505766634168 131.9859852278103 164 178 176
-785.0174450597536 -866.5814036510452 -779.5675344281927 116 86 99
785.2598166951624 -843.0472251078517 127.9278218902525 93 121 138
785.2598166951624 -843.0472251078517 127.9278218902525 93 121 138
787.1552836401066 -819.9858839806544 137.84585222530524 214 227 219
-783.7538861498352 -864.9070002358587 -777.926924787778 126 134 123
-783.7538861498352 -864.9070002358587 -777.926924787778 126 134 123
-784.0199691759444 -880.22510649801 -784.155949458136 173 155 168
785.4707947896947 -840.6680691556645 128.960095705751 44 53 57
789.8580625936761 -791.4636213780244 150.30862703758143 65 57 57
-782.9366741058363 -891.3028660679786 -787.6874290886607 185 178 169
-783.3173418726174 -888.3286163642395 -786.8020753461972 97 89 99
785.16060382663 -845.4349734966836 126.9553822328731 158 174 167
785.1663622003473 -845.4051587680025 126.97008183978117 158 174 167
785.4336906367643 -841.8846680375605 128.47229576138486 37 57 62
-782.6750715908423 -890.288899556139 -787.0977002332681 55 47 57
-784.3393210894691 -876.7871975558797 -783.039747389384 115 118 93
-784.3888801868737 -856.5833820077769 -775.096439307491 156 168 156
786.1498260717111 -833.1330074116667 132.2350112089515 120 127 122
786.1498260717111 -833.1330074116667 132.2350112089515 120 127 122
785.3718233404941 -843.1076334167171 127.96801047281335 69 68 54
785.3718233404941 -843.1076334167171 127.96801047281335 69 68 54
785.0773177581307 -847.1942864501709 126.23303635090107 148 164 153
-783.9482685228907 -863.7230028725481 -777.5844758284508 82 78 67
-784.5364221848629 -874.6103383559542 -782.3293364595279 144 123 108
787.2036264682664 -820.92866915279 137.51177799884493 195 213 206
785.336744936327 -844.0873524468768 127.57219691763697 71 69 69
785.3841794811871 -843.4795339011196 127.83228379430356 60 64 53
787.3233981009913 -819.7110933469044 138.04642352138683 156 163 150
787.3233981009913 -819.7110933469044 138.04642352138683 156 163 150
-783.3216353883333 -888.9894135853506 -787.0490719354474 201 203 197
-783.8149482084333 -883.9516140331198 -785.4415947909501 168 163 148
785.5764627436428 -841.2904123267471 128.7810909113478 95 123 140
786.3258994204936 -831.8822116325972 132.8144262146904 187 208 200
788.1355786901727 -810.9087684819431 141.88078782432768 79 78 98
-784.7067080716552 -872.8869662387074 -781.7745519521554 155 120 106
-784.7067080716552 -872.8869662387074 -781.7745519521554 155 120 106
-784.8920404155405 -870.3757167875679 -780.9305097212729 139 120 113
-784.8920404155405 -870.3757167875679 -780.9305097212729 139 120 113
-784.644013696255 -854.370460246655 -774.3942556883402 156 160 148
-784.0136775934129 -863.885811803342 -777.6849884795324 87 75 57
785.3225158976297 -845.1029764840246 127.17437062954744 90 98 87
-784.4076600225101 -877.2394290889473 -783.2482971713148 103 48 51
-784.4993735408806 -876.0644624794531 -782.8568218617988 134 109 89
790.7404150803067 -784.2933621408309 153.55583688224078 84 87 85
-784.6859873368176 -873.687532910142 -782.0649676908688 181 167 139
784.9585718943437 -850.7100403273649 124.81625109858487 153 164 154
-783.3128986590125 -889.7665403911041 -787.3295448345136 183 187 176
-784.1417722834242 -863.1703252862495 -777.4842343411461 116 126 110
-783.0622869988647 -891.1399053494418 -787.6809888528707 91 118 115
787.6647334730498 -817.3370547686749 139.1498864703015 203 224 221
785.4943704020812 -844.0032784306876 127.69360165480339 175 189 177
-784.8524742301761 -852.9977430795711 -773.987802314247 165 166 150
785.5796399270434 -843.0215875446092 128.11856642508565 85 87 81
-784.7108162780657 -855.0825607678665 -774.7064378414105 140 150 137
-784.2675712268324 -879.8209765964502 -784.1418682054748 155 151 162
-784.3620638329436 -878.7538676584625 -783.7930459598708 94 52 53
-784.0451400553233 -882.753764972017 -785.1199554212625 158 141 144
-783.0110064935661 -890.2323135216302 -787.2783602783496 125 142 145
-784.6442728633463 -875.2557550339479 -782.6329597668773 175 161 138
-784.1559607738382 -864.2477119396283 -777.9066551620186 101 85 73
-784.011060072176 -866.6549464014828 -778.748238472861 124 105 102
-784.011060072176 -866.6549464014828 -778.748238472861 124 105 102
787.1550453434945 -823.9782369390344 136.31496239400272 156 172 171
786.3960095632535 -833.2194879585953 132.3411566080673 113 127 126
-783.0998994823572 -885.5086959067646 -785.4879214747983 72 61 69
786.6164051846886 -830.789113629732 133.3980892495348 186 211 197
786.9010751044051 -827.545017400296 134.8034018934431 190 208 195
-783.113464458081 -890.4571718813941 -787.4310749872694 132 159 116
-784.8194689304677 -855.1982894692778 -774.813837382811 109 114 99
-784.4210297277427 -861.2541218972774 -776.909658604127 101 100 79
-784.2513522443072 -864.0763965462949 -777.8961430326832 111 92 65
786.236910739605 -836.1745785279721 131.1175157832562 90 115 117
788.0553087092977 -814.4479008341298 140.4786415029086 204 222 215
790.3652399049843 -789.6984051568838 151.27231225714385 45 50 53
-783.4214094523774 -889.915285019863 -787.4386205138519 184 183 169
-783.4214094523774 -889.915285019863 -787.4386205138519 184 183 169
785.6968341306492 -843.5839763519426 127.96898270655443 121 132 129
785.8151275900102 -842.3699337640544 128.5017839871387 143 164 161
786.1878568985086 -837.598694416817 130.5433832279041 74 83 92
-785.2580247703049 -850.1003819197407 -773.1101068715154 176 180 169
-784.1599770915456 -882.8925290624551 -785.2355133984477 155 158 143
-784.08386877564 -868.2243997621595 -779.3942709569203 98 67 52
787.0105353810776 -827.4377041598733 134.90648999003503 172 189 186
787.0105353810776 -827.4377041598733 134.90648999003503 172 189 186
-785.20963240404 -851.2821229382364 -773.5358516522563 169 178 158
-783.2357341599245 -887.2629220716835 -786.2497421023173 120 139 136
-783.6404120733309 -888.7179073452868 -787.1194136410036 182 182 170
-784.4112352095116 -880.2387897697447 -784.3787462241092 118 103 111
-784.600901152055 -860.6322821700237 -776.7749981393233 113 108 87
785.9751552561348 -841.10557990011 129.07745730515322 63 65 59
785.7228530936687 -844.5467392354635 127.6141563983763 169 183 171
-784.483164533717 -879.4505280290363 -784.1224244895977 180 161 182
786.9935645461088 -828.5682569276727 134.46327318678038 176 199 195
-785.1500406418724 -852.9730705093673 -774.1507150373445 165 167 155
-783.5826034595367 -889.3855626231058 -787.3309664627826 193 194 185
786.1294869382551 -839.6167624738495 129.73602238597695 164 172 161
786.1294869382551 -839.6167624738495 129.73602238597695 164 172 161
-785.2339109433512 -851.9618930240208 -773.8109695251271 108 105 91
-785.0203992343809 -872.4612040357372 -781.7893087631724 134 116 109
-785.0203992343809 -872.4612040357372 -781.7893087631724 134 116 109
786.3997999992522 -836.3928915152386 131.12585557937905 169 189 177
788.6756829369984 -809.3266422855157 142.79304617888198 100 98 118
788.6756829369984 -809.3266422855157 142.79304617888198 100 98 118
785.4856906191374 -848.9813310826135 125.77775405306443 134 134 116
-784.2417532884773 -883.1846082095884 -785.3900327064114 40 53 45
-784.9320682555854 -874.1671141605469 -782.3832207969882 158 127 112
-784.6068627597182 -862.1514891936658 -777.3624398443231 189 164 130
-784.6068627597182 -862.1514891936658 -777.3624398443231 189 164 130
786.0644592245328 -841.2076545926577 129.08874955581885 148 170 158
786.721351499245 -832.7810797520173 132.69333373214377 173 194 191
787.208447522115 -826.791688197223 135.26620334839774 106 107 105
-784.0188730445069 -885.8717619617856 -786.2711888352843 132 130 142
790.9099279638104 -785.9008362607949 153.0358663615708 98 143 140
787.3135843245642 -825.6299891758973 135.77121495122176 186 197 187
-784.7778150055891 -876.6422097146815 -783.2296747262038 91 49 42
786.2207472890844 -839.8668482916709 129.69162119778048 87 88 72
786.2207472890844 -839.8668482916709 129.69162119778048 87 88 72
788.2192910375056 -815.334141017375 140.23165354105862 202 220 207
-785.108832429415 -872.3286062917222 -781.7886472313393 147 122 102
-785.108832429415 -872.3286062917222 -781.7886472313393 147 122 102
-784.6873016779518 -878.3392096340688 -783.8179033466214 111 57 74
-784.2629526280132 -883.7212868122233 -785.6024680181376 81 76 77
-784.2629526280132 -883.7212868122233 -785.6024680181376 81 76 77
-783.754634712972 -888.8521460078563 -787.2269400307877 171 167 166
786.4872005528964 -836.8129401509556 131.0140795432186 172 181 171
-783.5122758079306 -885.7869250643269 -785.839439283858 134 153 158
787.1385175774237 -828.6628609249408 134.50894981406807 128 143 139
787.1385175774237 -828.6628609249408 134.50894981406807 128 143 139
-784.9597569960613 -874.7983038096542 -782.636492949716 179 169 139
-785.558429728183 -849.6568873799855 -773.1138689611554 178 182 163
787.2987698238375 -826.8628301994358 135.28998781620632 160 174 170
786.3936285479499 -838.3281482700816 130.37978024466196 165 178 162
791.4707580204229 -781.0313150136345 155.21920559772335 91 107 100
-785.4809962272878 -851.2461144051048 -773.6792971106106 175 178 162
-785.0152242025531 -874.457514695151 -782.5389740303056 190 168 140
-784.3611710411802 -883.1372263167988 -785.4379855007285 141 143 137
787.6629097133092 -822.9443122258542 136.99876138744284 198 216 199
787.6629097133092 -822.9443122258542 136.99876138744284 198 216 199
-784.6909131856429 -863.9166618283031 -778.0900049186203 115 101 78
-785.0434053226325 -858.3655764763066 -776.1606274991956 126 116 86
-785.0434053226325 -858.3655764763066 -776.1606274991956 126 116 86
-783.8600357595515 -888.5351099310421 -787.1665011637227 176 179 170
-783.5843156344863 -888.3778057430037 -786.89510150931 116 120 109
788.5716733437064 -812.6374085907521 141.46492319921197 89 90 104
788.5716733437064 -812.6374085907521 141.46492319921197 89 90 104
786.4789586314066 -838.4551308367583 130.37925139604758 80 82 70
789.4327519031983 -803.2150654465424 145.5641650814026 89 92 107
-784.9360931175044 -876.2016509468468 -783.1518049628054 108 51 50
-785.2346240580882 -856.1874329528881 -775.4345938755101 188 176 152
-785.310516024008 -870.9276346235872 -781.3727107103767 193 177 141
-784.4871002596377 -882.3440040274534 -785.21033720483 179 166 150
787.6181033770885 -824.4789596647096 136.3848442788982 138 138 126
787.6181033770885 -824.4789596647096 136.3848442788982 138 138 126
-783.724339400275 -889.1971235168105 -787.3120476702809 27 40 26
791.8402895180922 -778.3220165570972 156.46642646625327 166 183 186
789.8526820464153 -799.0366935225516 147.4033275801803 56 59 64
789.8526820464153 -799.0366935225516 147.4033275801803 56 59 64
787.5637423774446 -825.3849921486515 136.00660558910445 189 205 198
-784.217636919429 -885.7536026009298 -786.3350276491336 41 32 52
787.0573150269489 -831.9237532333912 133.2121081331664 113 126 124
787.0573150269489 -831.9237532333912 133.2121081331664 113 126 124
-784.1063479693365 -887.1322469394454 -786.7844652450123 157 159 153
-784.1063479693365 -887.1322469394454 -786.7844652450123 157 159 153
786.786715005189 -835.7093430904686 131.6067495346608 175 194 185
790.1550942480413 -796.2207792291166 148.65369984419502 118 152 158
-783.7766557953147 -885.0506212176388 -785.709963490509 142 125 106
786.9867888550739 -833.3866967350989 132.61097099401113 119 136 132
-785.9452144180912 -847.3612385072531 -772.4565878734284 180 184 172
-785.8549765682803 -848.6933355207884 -772.9157908707557 115 111 93
791.6531835573763 -780.7749679167802 155.42059783885412 89 102 104
791.6531835573763 -780.7749679167802 155.42059783885412 89 102 104
791.6724390466061 -780.6114736092751 155.49414029226912 89 102 104
-785.3744816561227 -855.9969469550925 -775.4425898336366 189 175 152
-784.9102377516739 -877.8741921237911 -783.7666164909758 107 62 89
-783.8033840556958 -888.4473370888679 -787.0578006042906 141 134 101
-784.482510800427 -883.5363567436237 -785.6535601459126 109 84 98
-784.482510800427 -883.5363567436237 -785.6535601459126 109 84 98
-784.8190518915553 -879.2546666696682 -784.2348438958405 110 98 116
-785.0800995973433 -875.8489652464588 -783.0989709972293 89 47 54
-785.515349698263 -869.4660196584939 -780.9354489663315 133 107 101
-785.515349698263 -869.4660196584939 -780.9354489663315 133 107 101
-785.232349530901 -873.7486935206045 -782.3926505732408 144 122 110
787.8460083432714 -823.6994449630889 136.81261027391955 198 213 209
791.301054732426 -785.0763744041739 153.57301810532968 85 113 114
-785.1611973120855 -860.530617463809 -777.0613111952551 167 142 108
786.877787025278 -836.0812080062736 131.51546620654588 98 102 91
-785.9943650916535 -862.3496644247467 -778.515480492421 74 36 31
-785.9826344011706 -848.5105930343697 -772.9196689693019 169 172 157
-784.1885879812318 -887.4323911985985 -786.9361175977546 224 228 216
-785.6544313060203 -853.7112621826855 -774.7268927502857 156 137 110
786.7423522913376 -838.4331321446896 130.53638989496352 122 132 120
790.247771663954 -796.8170736581587 148.47750381381158 104 126 121
-784.1542617382901 -887.8437994337553 -787.0650523226075 183 172 164
-785.0218132202747 -877.8126946804938 -783.8051753742815 112 71 92
-784.0604932369683 -888.2979757756702 -787.1691757444911 125 128 119
-784.7063275710515 -882.0838315381827 -785.2331749347634 82 82 82
-784.7063275710515 -882.0838315381827 -785.2331749347634 82 82 82
788.2007295172493 -820.4168568106139 138.27203363348562 205 217 205
786.6085837917672 -840.7765485223824 129.56141608924455 116 125 122
787.127179043055 -833.9862337920384 132.46017624450613 181 191 178
787.127179043055 -833.9862337920384 132.46017624450613 181 191 178
-785.9175451427604 -850.6254529674167 -773.694185208157 156 140 111
789.9453473564465 -800.7182876496265 146.81105889117376 166 189 197
-785.7846917325621 -853.4781367488055 -774.7129846605126 200 185 153
-784.7536369712784 -882.3048849426813 -785.3415968181547 155 167 147
787.0483804968911 -836.1275244822605 131.5939505240047 167 183 172
-784.7997576843671 -881.8506151010018 -785.1970095020384 65 69 64
-784.7997576843671 -881.8506151010018 -785.1970095020384 65 69 64
788.203481384734 -821.5926941234983 137.8225748329079 192 209 200
-784.5432618336914 -885.0521232555783 -786.2498658100734 208 210 198
-784.3602991465125 -886.8907679365593 -786.8275028569541 225 229 217
-786.3082435043941 -846.5547384582959 -772.3575206297743 169 175 156
-784.4353617114638 -886.3393998563827 -786.6661128147801 196 203 188
-786.090343011119 -862.7789622090753 -778.7311268623322 128 97 96
-785.3765722549534 -874.3281264500447 -782.6907485583181 142 142 128
-784.3248440560831 -887.376194424507 -786.9807617754751 217 222 201
-784.3228221117283 -887.4393330664171 -786.9999541723447 198 191 176
-784.3228221117283 -887.4393330664171 -786.9999541723447 198 191 176
786.4884333867332 -844.9858472562225 127.87755428947338 141 131 113
-784.8166632308952 -882.4346126127015 -785.4242829593491 52 47 49
-784.4622023826023 -886.4745717633436 -786.7287339580698 82 64 53
-785.1161694117667 -878.5150002236397 -784.1208417871121 105 93 113
-784.4327728838474 -886.7795777213076 -786.8233831545358 103 80 64
786.8538266110825 -840.2315321501256 129.90891564628046 173 183 171
-784.537212470692 -885.8787406217921 -786.5506647672547 185 188 179
-784.5761407337133 -885.8632934800823 -786.5650379518034 93 87 76
-784.8045213216791 -883.4162054524193 -785.7832069608176 121 122 118
-784.3994534785733 -887.2119286180905 -786.9511280800903 173 173 167
-784.3666584499854 -887.2117354990418 -786.9230273989987 130 147 134
786.6841929371418 -843.7665507771723 128.45604060857775 130 132 112
-784.6563116828279 -885.280979180288 -786.3937072399531 162 178 167
-785.2523090674578 -877.7168610285922 -783.8960577372734 225 196 199
-784.5687776264392 -886.333048205547 -786.7303947451867 148 119 82
-784.8102995952453 -883.8965887489557 -785.9644681267857 38 37 39
-785.0284849349426 -881.1307511342495 -785.0524856582265 168 159 145
-784.4907404074864 -886.8980884775636 -786.8866625096778 219 231 213
-784.6087691808505 -886.1211511240531 -786.6743608181213 56 40 34
-784.6359400602523 -885.8851661757092 -786.6031367342276 130 87 70
-784.6682005093706 -885.6863937008842 -786.5475194711751 55 38 12
787.7631904488778 -830.2802684557439 134.24104310082444 131 142 132
-785.2630879969992 -878.1518379770154 -784.0651559578573 110 91 116
786.8162169244416 -843.4438267702722 128.65429765149716 179 186 173
-785.0836715335048 -880.9733334736306 -785.0236138648954 175 170 149
-785.3940561351943 -876.5657965437935 -783.5416811178019 93 62 63
787.8174010759681 -830.0966163653223 134.34206969188912 142 151 141
-784.8158883368837 -884.5893191930377 -786.2229343233373 50 60 44
-784.6955300492273 -885.8677122969209 -786.6259034719469 161 129 93
-784.8883889399586 -883.9148210781514 -786.0125247877207 123 137 133
787.0065412581823 -841.5637212224066 129.48341010764133 121 124 99
-784.551772888854 -885.5051673460566 -786.354943196735 253 225 161
-785.0609474641385 -882.1201269550328 -785.4388859300872 108 92 109
787.0873828248832 -840.9631723579233 129.75951346059654 141 133 116
-785.0278066828735 -882.7581546267822 -785.6582246181637 143 133 133
-785.1666650035062 -880.9133190259474 -785.046077520555 118 106 100
788.0586211291482 -828.1967978284557 135.2070487565311 149 152 143
-784.8572968694709 -884.9361884510307 -786.3707423847579 66 32 33
-786.1907728709319 -864.8732135382169 -779.5773990120408 134 112 100
-784.9538524148747 -884.0848330803061 -786.1092633240862 27 24 20
-784.8469083948847 -885.2694889989557 -786.4854475459989 162 126 102
787.2898613326533 -839.386074806261 130.47902112332977 141 132 122
-785.2670215815604 -880.2705288365705 -784.8602879503759 162 162 146
-786.1607555196665 -865.9207852316014 -779.9559907208499 60 48 54
787.5822374858318 -835.9272318508647 131.97155494362735 152 151 147
-785.2237965056023 -881.2438810555224 -785.1999736659932 158 175 171
-785.2237965056023 -881.2438810555224 -785.1999736659932 158 175 171
-784.9812038051584 -884.3089154486403 -786.2051741415429 100 84 72
-784.8285281556722 -885.3431596419373 -786.4667334012097 254 225 164
-785.2438835959937 -881.6599391330511 -785.3653715709535 103 85 102
-785.2622705022542 -881.5107063452554 -785.3196986808687 97 94 103
-785.3839875024431 -879.9436276124487 -784.8011784246125 164 160 142
-785.9365400946377 -871.3223882652674 -781.8677964249799 142 126 109
-785.2701181093109 -881.8262994400055 -785.4409506189561 131 133 133
-785.3444357353468 -880.8186028426911 -785.1060466629181 168 181 179
-785.0608057414759 -884.399411375422 -786.2769053967162 188 156 127
-785.7371516845947 -874.807656539819 -783.0690210429867 82 50 51
-784.9332908424454 -885.0263038407724 -786.4081531307205 131 91 62
-784.9691797753298 -884.719902918921 -786.3074096009929 175 106 67
-785.1181803420224 -879.7684775156656 -784.4565528398556 254 228 162
-785.2561122120287 -882.8064515468313 -785.7953875003644 30 23 20
-786.2537849524377 -866.7414022357356 -780.316424670571 179 158 131
-785.5014015652312 -879.4581181773634 -784.6828852427585 179 168 154
-785.0107832986994 -884.2454115701669 -786.1438777520985 255 225 167
-785.7563786175201 -875.6271357842894 -783.3869147980572 105 59 72
-786.3495388232421 -865.4806790461247 -779.8936884308386 76 54 66
-785.7199537938836 -876.6583566946546 -783.7536493466189 105 101 107
-785.5837039514897 -878.8357255125588 -784.4946069772346 163 145 138
-785.0949609368685 -883.8860270491354 -786.0545682787628 188 108 71
-785.254177236513 -883.5332330395108 -786.0585211024642 172 134 104
-785.1160074718895 -884.3707133842926 -786.2651796064331 133 103 78
-785.4844790963431 -880.6394029037159 -785.1134131465141 100 81 98
-785.5174720697628 -880.2032482756939 -784.9687933607552 152 148 143
-785.5985013756963 -878.9889633943922 -784.559631199388 177 166 152
-785.3057690543337 -883.2136748692379 -785.9682528672413 41 29 19
-786.4638634315411 -863.9753685085984 -779.3887132688055 130 89 104
-786.4638634315411 -863.9753685085984 -779.3887132688055 130 89 104
-786.0431208882853 -872.1406029030869 -782.2333836347407 91 96 81
-785.6116964533277 -879.4466201030594 -784.7370494835767 157 147 130
-786.3664815662809 -866.4480637638134 -780.2673139384549 163 152 132
-785.2403592084171 -883.4615168282592 -785.9793708280481 199 167 131
-785.3874122330221 -882.903365217248 -785.8952579246385 156 125 102
-785.6416916426905 -879.517110209835 -784.7789854847138 60 57 53
-785.6416916426905 -879.517110209835 -784.7789854847138 60 57 53
-785.8475191423263 -876.198035471068 -783.6497001403249 110 92 105
-786.0436023799315 -872.8369958636476 -782.4951191246564 147 126 105
-785.3736106780458 -883.3320249711153 -786.039124662469 164 133 110
-785.3736106780458 -883.3320249711153 -786.039124662469 164 133 110
-785.3117731082796 -882.4070793999792 -785.6057178905721 255 219 166
-785.488692226902 -882.2405917865553 -785.704328077855 136 111 91
-785.488692226902 -882.2405917865553 -785.704328077855 136 111 91
-785.7336344351157 -878.6562402314833 -784.5069588804687 81 74 81
-785.6624125802888 -879.7990152913954 -784.894378720597 91 78 92
-785.6561962439691 -880.0742004523655 -784.9930873280312 104 103 99
-786.0670539237616 -873.103406628887 -782.6076421759594 97 49 43
-785.4951693888817 -882.3789287981263 -785.7571577586975 168 138 97
-785.7153307258111 -879.2631600568843 -784.7229997889162 158 169 167
-785.3917014293751 -883.2923009387581 -786.0179576526294 158 136 101
-785.379974137774 -882.6893648567413 -785.7616824950678 152 141 127
-785.3856469209455 -882.5412849265347 -785.7062482002262 80 61 48
-785.3856469209455 -882.5412849265347 -785.7062482002262 80 61 48
-785.42846905194 -881.7488551636817 -785.419548977007 145 95 67
-785.5702691392021 -881.8242423051702 -785.5924203323704 140 102 78
-785.5702691392021 -881.8242423051702 -785.5924203323704 140 102 78
-785.8053168596625 -878.2382712030721 -784.3888471446891 168 156 152
-785.6323251543255 -881.1117169403403 -785.3630546406963 41 25 13
-786.2141567740168 -871.0878530037891 -781.9299310644681 165 157 128
-785.7969969456593 -878.6530641764509 -784.5387214080442 77 75 74
-785.7969969456593 -878.6530641764509 -784.5387214080442 77 75 74
-786.295665707492 -869.6241265466562 -781.4237736955512 119 101 90
-786.295665707492 -869.6241265466562 -781.4237736955512 119 101 90
-785.467533618333 -882.4095437877163 -785.7075562161374 166 145 124
-785.467533618333 -882.4095437877163 -785.7075562161374 166 145 124
-786.0158907617615 -875.0022063558473 -783.2916938114676 163 161 173
-785.5931732837979 -881.9031798631536 -785.6313574941188 182 145 107
-785.4974405267017 -881.5119417712748 -785.3697485636987 82 64 53
-785.5263037366382 -880.7180246585119 -785.0753079050527 254 226 165
-785.8941429918871 -877.399339912463 -784.1227561402479 63 54 67
-785.969270991156 -876.1413041945609 -783.6928479688197 83 65 78
-786.5018154950625 -866.0093758230987 -780.174995732515 152 139 123
-785.9478481617589 -876.6557678239769 -783.873602188555 140 135 136
-786.028290560518 -875.2238308376675 -783.3810744110806 112 104 115
-786.028290560518 -875.2238308376675 -783.3810744110806 112 104 115
-785.8426420617988 -878.6814955182689 -784.5726791504625 125 118 133
-785.5618385714466 -881.899692919501 -785.5659706558948 129 132 110
-786.2200041382979 -871.9234419483781 -782.2464729921733 64 40 34
-785.9004180920059 -877.8275707986745 -784.2853019760361 143 143 131
-785.6117468797228 -880.4595734502755 -785.0273349198907 180 124 89
-785.712085700557 -881.0221204626488 -785.368561702408 114 81 65
-786.1135008110997 -874.204946202436 -783.0447893732473 92 56 62
-786.0125077613003 -876.1560886823964 -783.7208607943764 128 136 135
-785.6103063261415 -881.5664541934029 -785.4648228790793 68 41 44
-786.2069543735914 -872.5929871359607 -782.4904652107695 78 60 49
-786.0998587297852 -874.6753629352089 -783.2135100244235 198 189 179
-785.617949997872 -881.7020093591395 -785.524502434763 178 154 132
-785.6368379002437 -882.1051215239519 -785.7087639040838 175 144 111
-786.5148018531414 -866.4937323855992 -780.3639198819494 117 90 69
-785.651647977753 -881.0356524131064 -785.2804457491552 172 145 111
-786.0369121541554 -876.0684077537612 -783.7007721446278 159 173 167
-786.0369121541554 -876.0684077537612 -783.7007721446278 159 173 167
-785.691697573723 -880.1048833903383 -784.938319170795 180 146 117
-786.2435141998128 -872.1785433512458 -782.3543845624667 109 102 85
-786.2435141998128 -872.1785433512458 -782.3543845624667 109 102 85
-785.6838196194124 -880.3859864826342 -785.0440729550841 94 63 38
-785.9543977500205 -877.829582399588 -784.3135041463909 71 69 68
-785.6874033271163 -880.9775035414696 -785.2808407434313 39 25 26
-785.6874033271163 -880.9775035414696 -785.2808407434313 39 25 26
-786.1992815675409 -873.2746872665182 -782.7415764402532 106 103 75
-786.1992815675409 -873.2746872665182 -782.7415764402532 106 103 75
-786.1992815675409 -873.2746872665182 -782.7415764402532 106 103 75
-785.6987277850793 -880.6705947196252 -785.1662588427876 76 28 24
-786.419221909202 -868.8875633080298 -781.2125465316785 125 112 90
-786.1948630979728 -873.5998011671649 -782.8608317492734 80 61 48
-785.7687909659905 -879.3753822257819 -784.7003064688174 200 131 114
-785.7687909659905 -879.3753822257819 -784.7003064688174 200 131 114
-786.0811575093387 -875.8026628027318 -783.6244416796036 90 101 98
-786.546198718658 -866.4272172600511 -780.3553511359154 188 166 131
-786.0261419442281 -877.0328914757346 -784.0540562890571 66 69 73
-786.0261419442281 -877.0328914757346 -784.0540562890571 66 69 73
-785.7333914765698 -880.9544746977791 -785.3025503628559 86 34 44
-786.3909428368495 -869.8177639534198 -781.5466273237416 77 47 28
-785.7620831298274 -880.2223485918983 -785.0298827232382 222 185 157
-786.0590586818898 -876.4989353936769 -783.8722993051357 140 150 144
-786.0590586818898 -876.4989353936769 -783.8722993051357 140 150 144
-785.8428733751938 -880.3507232677109 -785.185304472266 88 47 32
-786.4921592909354 -867.8257381357311 -780.8521234729704 64 41 26
-786.313206648498 -871.6120117202105 -782.1784371088934 65 37 26
-785.7756915133505 -880.2639021351056 -785.0552689145518 57 36 28
-785.7756915133505 -880.2639021351056 -785.0552689145518 57 36 28
-785.8341040447535 -879.0860756356448 -784.6280198810459 228 217 203
-786.2208332134516 -873.6460341171049 -782.8914205733873 128 117 109
-786.1475296880664 -875.1608681403467 -783.4191079279866 190 169 167
-786.1475296880664 -875.1608681403467 -783.4191079279866 190 169 167
-785.7936788950369 -880.7806931685403 -785.27440646564 187 155 119
-785.7992645142888 -880.5818703904146 -785.1980383660928 62 38 38
-785.9088948567627 -879.8270986288467 -785.0254728782628 120 86 62
-786.0873203733804 -876.675368403083 -783.9519010990263 132 145 131
-786.6820751266785 -864.1947924799249 -779.5873050446514 53 39 41
-786.6182985295279 -865.6262874131281 -780.0918495674046 131 119 95
-786.6182985295279 -865.6262874131281 -780.0918495674046 131 119 95
-786.0472191229856 -877.570607609476 -784.2635838587232 162 160 149
-786.0472191229856 -877.570607609476 -784.2635838587232 162 160 149
-785.8553393734433 -880.159570867104 -785.0671156665353 231 225 214
-785.8553393734433 -880.159570867104 -785.0671156665353 231 225 214
-785.8553393734433 -880.159570867104 -785.0671156665353 231 225 214
-786.0152988570256 -878.4284333471903 -784.5641707774552 66 50 43
-786.1638169518948 -875.6038694515371 -783.5919966729593 143 140 136
-785.8799604584534 -880.1079871061817 -785.0634956398039 61 38 22
-785.8799604584534 -880.1079871061817 -785.0634956398039 61 38 22
-786.208044683386 -874.7553275407513 -783.2984250239626 175 159 160
-785.9554070153781 -878.2850065422565 -784.3905608705288 246 232 214
-786.1530968975057 -875.9272976119368 -783.7067806008575 75 63 61
-785.9350168644304 -879.1184065917619 -784.7060783002219 212 182 155
-785.920971606452 -879.6714644258977 -784.9167495768409 63 38 34
-785.920971606452 -879.6714644258977 -784.9167495768409 63 38 34
-786.2677655756509 -873.7664855976229 -782.959886902486 183 155 161
-785.9176594910581 -879.861208595702 -784.9906321607083 87 56 41
-785.9176594910581 -879.861208595702 -784.9906321607083 87 56 41
-786.1319435582125 -876.6884691281881 -783.978401339498 80 78 78
-786.6339039464096 -865.8258087139003 -780.1742926485924 118 110 103
-786.1657881602745 -876.1292886906795 -783.7877487898219 163 154 150
-786.3189227953462 -872.9096036220241 -782.6658709949983 93 55 61
-785.9619801561995 -879.2276737247894 -784.7675748692386 63 64 54
-786.5588154237217 -867.6568984818107 -780.8224426113809 123 104 89
-786.7000096243033 -864.3993161534919 -779.6726604996867 144 128 112
-786.0625087181868 -878.3020225519804 -784.5394050838463 49 31 24
-786.0625087181868 -878.3020225519804 -784.5394050838463 49 31 24
-786.6729522953456 -865.0843089346266 -779.9158142476381 66 57 53
-785.9783127331701 -879.3620754602467 -784.8326370396293 205 191 173
-786.112868346379 -877.5226674918212 -784.2767703467864 24 11 9
-786.0517446385402 -877.8443782668473 -784.2794606904947 188 153 133
-786.0539759480477 -877.8256869959581 -784.2735526291776 190 153 127
-786.0240568935892 -879.2784941638537 -784.8759152283146 166 131 98
-786.1691253404882 -876.6590332098133 -783.9848702415397 111 95 96
-786.027119533733 -878.9472137733961 -784.7005437718337 108 62 44
-786.6937119364553 -864.8255157806154 -779.8287956395937 134 122 112
-786.6937119364553 -864.8255157806154 -779.8287956395937 134 122 112
-786.6937119364553 -864.8255157806154 -779.8287956395937 134 122 112
-786.4311996050752 -871.0734243645077 -782.0359348933882 57 29 29
-786.6128070784157 -866.8305952417046 -780.539460554566 121 124 115
-786.1257253740943 -877.1347757281702 -784.0483371900319 181 144 118
-786.0706669061422 -878.3516458378427 -784.4929345097277 183 147 117
-786.1270731523535 -877.223035983131 -784.0839935332176 186 158 134
-786.1270731523535 -877.223035983131 -784.0839935332176 186 158 134
-786.0950699508597 -878.5373824635166 -784.6381232306314 82 42 37
-786.063730876605 -878.7946568818877 -784.6654126831044 231 224 204
-786.063730876605 -878.7946568818877 -784.6654126831044 231 224 204
-786.2831966075064 -874.5853703291812 -783.271283007446 60 60 60
-786.2831966075064 -874.5853703291812 -783.271283007446 60 60 60
-786.6632140746083 -865.7314436977125 -780.1525923702875 68 58 51
-786.3408036297467 -873.329852481449 -782.8324805761448 156 134 139
-786.7672390726952 -863.2129615798152 -779.260288772254 71 50 59
-786.5830453331766 -867.723447071974 -780.8584740315254 81 58 43
-786.5830453331766 -867.723447071974 -780.8584740315254 81 58 43
-786.5398888749683 -868.7832557979724 -781.2334993496571 63 60 52
-786.0961601028873 -878.8054020133059 -784.7335425928884 158 120 90
-786.7208033343582 -864.411943554393 -779.686405429872 132 122 104
-786.1064340532274 -878.3842281982814 -784.5311685157874 72 43 46
-786.0984653584021 -878.6313299437379 -784.6250953702041 87 36 50
-786.2263885706968 -876.2081565967787 -783.8444212470346 72 74 74
-786.2274450212803 -876.2074666806985 -783.8446171770609 70 68 67
-786.1731573930031 -877.1761361835864 -784.0962618391253 179 141 123
-786.2577862431838 -875.6368300463723 -783.6479386303581 175 157 158
-786.5993652008226 -867.5196469053477 -780.7896196477288 78 63 44
-786.1371269322972 -878.2305434543289 -784.491838435419 211 203 190
-786.4699762582736 -870.7423736373023 -781.930268170792 90 48 36
-786.2140333767856 -876.738128400257 -783.9506604616074 160 112 94
-786.1223728656774 -878.7001155012639 -784.6727364935186 198 162 126
-786.1789346377227 -877.5838646196363 -784.2624884350575 131 78 51
-786.1789346377227 -877.5838646196363 -784.2624884350575 131 78 51
-786.7215678355781 -864.520480036718 -779.7263711056921 155 137 108
-786.1266447214654 -878.8403878106947 -784.7394024480408 166 131 111
-786.4282184387952 -871.8635935763629 -782.3277220843407 74 48 48
-786.3598261727944 -873.5508156405035 -782.9224966636286 75 56 65
-786.1491027296076 -878.4257972397722 -784.5813582269642 167 120 92
-786.3456902973084 -873.9010276653271 -783.0457731310473 158 146 146
-786.5269248156042 -869.4717711905967 -781.4831842758981 109 124 116
-786.1832162644362 -877.7403471222078 -784.3284550397235 119 71 47
-786.5658999837472 -868.5356756887581 -781.1521925251674 81 58 36
-786.218613288861 -877.165597341982 -784.1237743872224 175 139 103
-786.1497647822865 -878.6490856092469 -784.6852760711138 184 146 116
-786.1497647822865 -878.6490856092469 -784.6852760711138 184 146 116
-786.1845855578042 -878.0318576640885 -784.4482656754723 160 128 122
-786.2605818161436 -876.5698480056444 -783.9161831327898 153 116 96
-786.2597782886403 -876.2926772965304 -783.8884803778014 34 22 20
-786.5457918218412 -869.1423859862931 -781.3683892905977 67 51 45
-786.5457918218412 -869.1423859862931 -781.3683892905977 67 51 45
-786.7602811068712 -863.5359757069751 -779.3750989660107 78 56 61
-786.2143396416167 -877.5224338958582 -784.3160288672398 175 135 106
-786.7018169253614 -865.0802825277964 -779.9244345701019 114 108 89
-786.4393828304387 -871.9802796747116 -782.3747238942407 157 147 147
-786.2484520534937 -876.8428912586664 -784.0834503589488 49 30 22
-786.5522169934309 -869.0484834139525 -781.335628599508 84 56 39
-786.2822298970162 -876.6016676219955 -783.9446516144824 144 100 63
-786.3943559679537 -873.1973657799831 -782.8054959809461 172 176 171
-786.4162228535342 -872.6356994004965 -782.607130019854 81 60 58
-786.2248062574664 -877.8358645672303 -784.4038524710021 143 103 74
-786.3261157878101 -874.9868597982503 -783.4362791152074 149 137 137
-786.2865514387796 -876.7010349493547 -783.9879762421361 130 81 59
-786.7645633663051 -863.3297742944459 -779.298203462325 91 59 64
-786.4267755275278 -872.4352725220343 -782.5370363283832 66 64 64
-786.4267755275278 -872.4352725220343 -782.5370363283832 66 64 64
-786.6434360953465 -866.6185340013562 -780.4700588159707 149 143 120
-786.6434360953465 -866.6185340013562 -780.4700588159707 149 143 120
-786.2365483457928 -877.7821346876523 -784.4028440716781 153 106 78
-786.3774824371031 -873.8547577992571 -783.0398602800446 130 119 135
-786.3269263384149 -875.2462719666339 -783.5305110392611 56 58 58
-786.7410651171979 -863.8594265466868 -779.4837755544811 172 149 123
-786.4858237564026 -870.9416216401737 -782.0078927834358 103 60 39
-786.2969579426583 -876.1269142131843 -783.8398535999194 63 44 36
-786.305371015241 -875.9128856715586 -783.765116916634 40 34 29
-786.3509601810281 -875.9372442590111 -783.730312457986 255 224 161
-786.2587765610145 -877.5395243188033 -784.3201943618584 138 93 66
-786.6476359138388 -866.4188205552755 -780.395759774391 154 139 120
-786.2928985987048 -877.0960372178719 -784.1592716502479 148 97 64
-786.3544469696014 -876.0525776800877 -783.7803083173061 198 142 113
-786.3294515919562 -875.4452922090951 -783.6024857139201 92 101 104
-786.3037347899686 -876.2801890682797 -783.8955512911047 128 92 68
-786.4626839569327 -871.6432524020909 -782.2562073020952 98 67 76
-786.4626839569327 -871.6432524020909 -782.2562073020952 98 67 76
-786.3238828037877 -876.7008162003235 -784.0237103942882 157 114 75
-786.3156622795673 -876.8364623558963 -784.0750592899857 204 190 162
-786.5626721758109 -868.7260598945131 -781.215186882273 132 129 114
-786.3647426273901 -874.6064162644266 -783.3070196746137 155 142 126
-786.4623470630842 -871.6570764775777 -782.2593548473714 160 146 150
-786.3474713778453 -875.1710072597562 -783.5065676293409 14 16 17
-786.3474713778453 -875.1710072597562 -783.5065676293409 14 16 17
-786.3616552527892 -876.1679733055809 -783.8371277309192 168 119 87
-786.3800992143082 -875.8626226031903 -783.7267224377781 160 120 91
-786.9129850734457 -858.0242193205279 -777.3739499415841 222 140 63
-786.7142923795872 -864.0632272138131 -779.5424788297389 124 113 105
-786.3120798017857 -876.7521119555869 -784.0580654273392 220 208 184
-786.3120798017857 -876.7521119555869 -784.0580654273392 220 208 184
-786.3525992720968 -876.3280856748397 -783.8973487568296 192 180 152
-786.3599634488909 -874.8446425570942 -783.3909924478618 112 119 116
-786.5559565424638 -868.7731075657864 -781.2274108024392 79 70 57
-786.5559565424638 -868.7731075657864 -781.2274108024392 79 70 57
-786.3269038233619 -876.1739166954752 -783.8590541352295 187 145 103
-786.3269038233619 -876.1739166954752 -783.8590541352295 187 145 103
-786.3446921843083 -876.4148688635815 -783.9364097676535 195 186 166
-786.3726481210919 -874.4942646291049 -783.2661227020634 55 49 50
-786.6532531637803 -865.5833343757412 -780.0798605378311 160 145 113
-786.6187256008719 -866.5842480934379 -780.4372197510913 182 155 128
-786.343495179303 -876.3030392124657 -783.9010835827117 216 202 180
-786.3414153899629 -876.2691361508988 -783.890092506239 155 107 89
-786.3850027755631 -874.1097944288183 -783.1283036410401 140 135 136
-786.3637386593457 -876.126164633348 -783.8354922150556 114 85 64
-786.3786211264016 -875.9038983016297 -783.7568875556107 212 197 171
-786.3717019113536 -874.6851026382105 -783.3303577908405 61 53 53
-786.3867200913232 -874.0683712669744 -783.1103834553433 156 156 156
-786.5604350060588 -868.0221665107038 -780.9437043259919 130 133 107
-786.5604350060588 -868.0221665107038 -780.9437043259919 130 133 107
-786.3664043322735 -874.9677131507021 -783.4302856650997 58 42 36
-786.4807866642152 -870.6577559980943 -781.8887674320798 114 72 95
-786.3728840827886 -875.7712361145194 -783.7130565324042 207 199 176
-786.4215575448485 -872.7146399091126 -782.6248647971607 159 151 161
-786.4215575448485 -872.7146399091126 -782.6248647971607 159 151 161
-786.3844280559346 -874.1593115437946 -783.1403257606304 98 86 92
-786.367352752144 -875.081975525023 -783.4692825906772 146 135 137
-786.7194736175203 -862.252803747105 -778.8577553465482 98 63 67
-786.3775266878947 -875.4992201655606 -783.616165670241 147 102 75
-786.3781912606993 -874.4705782042066 -783.2499489472283 70 65 66
-786.3781912606993 -874.4705782042066 -783.2499489472283 70 65 66
-786.3907728944089 -875.3964457623946 -783.5787450912122 157 110 83
-786.3722466788029 -875.106869037339 -783.4760677733451 104 71 78
-786.3770887305783 -874.5732196045433 -783.2852145721209 152 147 148
-786.379162238016 -874.8619143987554 -783.3856724051623 111 100 116
-786.3939877251412 -874.9234521120818 -783.4064011693669 255 206 149
-786.3837334641985 -874.728630501066 -783.3356770523905 138 97 104
-786.6870777026485 861.9172115840678 -121.25423533093131 93 68 66
-786.6433044868984 863.1965618791776 -120.74675819555537 184 171 145
-786.390441887186 -874.6841831493933 -783.3181014326483 254 210 139
-786.390441887186 -874.6841831493933 -783.3181014326483 254 210 139
-786.791570946078 857.2782498019129 -123.06771535479238 214 133 65
-786.5246924596089 -867.2932222937674 -780.6429695686907 146 139 124
-786.5460611636358 -866.2882625493276 -780.276550646363 163 164 125
-786.3859997349791 -874.1521949726156 -783.1217846265357 101 89 89
-786.4490510299573 -869.3535347863362 -781.3712497757423 122 68 85
-786.6091547008864 861.8909200648379 -121.22315477958114 153 157 138
-786.4264037046759 -869.4945120556686 -781.4089499290543 175 178 193
-786.4321810916178 -869.1012181390346 -781.2646310154505 112 66 79
-786.3830689776986 -873.3568575189599 -782.8158610455612 174 96 90
-786.4164864552279 -869.8345739965405 -781.5302408804051 117 103 114
-786.4680152774184 867.1875581903263 -119.14762445003 113 125 105
-786.6001796428906 860.7883134851353 -121.6355908068958 64 39 53
-786.4460284038315 867.5263826961951 -119.00878712910414 69 49 44
-786.4467656428214 867.4813914939488 -119.02612594416215 69 49 44
-786.4043509227754 -869.5921921911545 -781.4306846606826 115 103 115
-786.3769499986333 -873.0243588266541 -782.6864598421945 163 82 67
-786.3799424948895 -873.1216745252988 -782.7227345634295 254 209 142
-786.3671593337114 -872.5912955758223 -782.519922134285 97 64 79
-786.3648302029626 -872.4326558714305 -782.4604997321535 129 127 146
-786.4331594538085 866.8104738397471 -119.272309605038 143 132 110
-786.3930212783981 868.5794913044683 -118.5858942935565 93 66 75
-788.8734565245162 -833.7874268591636 -768.9650883247558 195 211 223
-786.3826026362524 869.1766435377638 -118.35636130756913 113 103 116
-786.4119804429339 867.1928816925526 -119.11741765399373 70 55 39
-786.3968858985783 866.477725058908 -119.37919355679728 143 144 112
-786.3491075271024 -872.1213756465205 -782.328667302367 254 210 146
-786.3964158016055 866.4112725739154 -119.40399176398003 148 149 115
-786.3563271649779 868.6236674691008 -118.55141845031794 144 146 164
-786.359012488493 868.2963933600621 -118.67566087184429 111 71 99
-786.3337334413848 -871.6632445631336 -782.1494601402742 102 68 79
-786.4993611669023 859.1936751584814 -122.18424644776478 86 79 84
-786.385931937639 863.3343237468204 -120.55876464499951 173 160 134
-786.385931937639 863.3343237468204 -120.55876464499951 173 160 134
-786.3002231049235 867.8533552752607 -118.81274848391443 131 84 116
-786.2945569371365 -870.8258022706716 -781.8113106791267 143 141 161
-786.2684143045633 870.4063270828357 -117.84810674482387 141 139 159
-786.3196101588294 862.9571452670062 -120.665540013065 167 154 128
-786.2812191121203 863.6861380501912 -120.3701501994644 175 149 125
-786.2812191121203 863.6861380501912 -120.3701501994644 175 149 125
-786.2248794985759 869.7424036901288 -118.0740355848447 136 133 149
-786.3011663462577 859.5792201561051 -121.93044417393526 73 49 51
-786.2086557149274 867.3838007970304 -118.94256944306055 167 160 173
-786.2288381928212 862.8887300537581 -120.64252872270218 118 106 100
-786.2033661830893 862.2647966108657 -120.86392697181975 175 164 137
-786.15194597711 864.4584518431519 -120.01049486997941 163 149 127
-786.2788655642369 -869.9352441943806 -781.4285206841682 255 214 145
-786.1477914969502 862.927790714803 -120.58416002465663 170 150 115
-786.1477914969502 862.927790714803 -120.58416002465663 170 150 115
-786.1230361293806 865.2987149005003 -119.67960043582366 95 54 45
-786.0951513032393 866.6500376200988 -119.15910421271472 179 170 180
-786.0845965270719 864.7316770288439 -119.87208699298651 147 133 110
-786.0791278216814 860.1216714486258 -121.60428472111143 182 165 138
-786.028390823405 861.5244254892536 -121.04794322385966 154 145 118
-785.9851708130676 864.6312589194646 -119.85703456656029 96 51 40
-785.936048521163 866.83525005887 -119.0103326780069 137 131 150
-785.8681388999919 860.9329130462281 -121.18329633247407 176 152 130
-785.8617602911942 863.6620479890267 -120.15452612257963 147 140 123
-785.872847827764 865.4382727136954 -119.49645367656021 179 168 194
-785.8646593872403 866.4517949834468 -119.11668894354743 109 81 94
-785.7242511808028 863.5117951393023 -120.13726992227416 101 54 50
-785.7102894568293 861.2190852707217 -120.98955603716739 175 148 127
-785.6784632956042 858.7396544767286 -121.90506093343052 149 128 126
-785.7020619053195 864.369824712723 -119.80521598185592 102 65 75
-785.6276013171414 860.2175302939767 -121.32086535066696 169 144 118
-785.6388456784109 864.4123376392621 -119.75633934358356 146 144 163
-785.6283865704904 864.0259582301314 -119.89451065756124 108 58 68
-785.5915257363121 861.2989412007767 -120.89487619660785 153 139 117
-785.5915257363121 861.2989412007767 -120.89487619660785 153 139 117
-785.5915257363121 861.2989412007767 -120.89487619660785 153 139 117
-785.5632307122079 856.0091002061222 -122.87063246371108 121 87 97
-785.5440126661848 859.1606831570888 -121.6725147590416 106 80 63
-785.5186722222765 861.1217760339277 -120.92169300601356 142 135 120
-785.5463115964287 863.9452493601366 -119.88143653599616 156 147 157
-785.5008723163348 864.854770531944 -119.52370574351907 255 224 159
-785.3627164657617 857.565602888032 -122.17287594610121 68 52 46
-785.3623389357602 861.3983113313157 -120.73311366853966 161 141 116
-785.3820918929629 863.2567374170691 -120.05077555957169 174 164 176
-785.367734852839 862.8929907015199 -120.17824695073986 107 55 65
-785.2911491102801 859.3027694013424 -121.48006009066115 130 125 104
-785.2293674702129 862.6812209201952 -120.18373472650359 170 162 179
-785.0803212718844 854.3390513877272 -123.23179218223228 128 75 84
-785.0551518516365 859.9257241376899 -121.11714082705498 46 26 25
-785.0929237187521 861.9115823083558 -120.39683174689937 105 58 74
-784.840761756707 853.8480461782171 -123.28331480818375 252 187 113
-784.9204517488097 860.8362590354559 -120.70410118669894 110 60 70
-784.7867202002187 860.4721620077746 -120.76754181013925 255 222 158
796.7250917631534 -492.5047152797029 268.457920291505 158 145 131
794.7591039899669 -520.1824854244264 256.76071396127963 153 141 129
793.4594783529 -533.6226492878775 250.8825909568453 226 204 198
793.4594783529 -533.6226492878775 250.8825909568453 226 204 198
793.4594783529 -533.6226492878775 250.8825909568453 226 204 198
791.8109240761165 -560.5776755694483 239.64094904108802 243 225 218
791.36886729806 -499.89262212881937 262.5705582628607 202 190 178
791.36886729806 -499.89262212881937 262.5705582628607 202 190 178
789.8938324177215 -541.0202811719121 246.01501220438382 152 151 141
790.5727549633931 -519.1410322231173 254.76209540495591 152 152 138
788.5563883122861 -563.899072147117 236.50806832222295 159 158 138
788.5563883122861 -563.899072147117 236.50806832222295 159 158 138
785.9930559186263 -598.8333950754459 221.69079237499133 254 240 222
786.565767661581 -540.5713613111501 244.28090030403334 241 231 224
-775.8492394526775 769.6875558655693 -150.10143033259317 173 200 210
784.8414028928825 -513.8523727027999 253.5014533711988 255 241 228
779.2716731594807 -603.3238795566234 216.1232613684795 167 184 187
779.2716731594807 -603.3238795566234 216.1232613684795 167 184 187
779.6376773533221 -517.4721900874983 249.13935063518258 255 244 234
779.6061651329816 -518.5693018607168 248.70214440793904 253 243 233
-762.5668653486424 808.7150607453891 -127.70442891248939 201 180 179
777.2533426278619 -489.88115979401096 258.31541294387347 247 112 98
777.2533426278619 -489.88115979401096 258.31541294387347 247 112 98
777.2533426278619 -489.88115979401096 258.31541294387347 247 112 98
776.3602312072278 -539.2203800147719 238.95299058426377 228 192 184
776.3602312072278 -539.2203800147719 238.95299058426377 228 192 184
-767.7928764663612 779.5142789615105 -141.78704456648356 254 244 237
-762.6172532972688 738.1768905065343 -154.52942720027838 196 191 170
