ply
format ascii 1.0
element vertex 695
property float x
property float y
property float z
property uchar diffuse_blue
property uchar diffuse_green
property uchar diffuse_red
end_header
-0.6126797289255151 0.6593797390810684 0.3888824399016093 155 175 170
-0.6072735398881871 0.6702460530199689 0.3634272734542961 161 151 141
-0.707746183549435 0.5219703069116606 0.6974190110922256 160 172 184
-0.6121777902812247 0.6603456051391736 0.38624997002887534 166 178 172
-0.6121777902812247 0.6603456051391736 0.38624997002887534 166 178 172
-0.6875654391626652 0.5461555532613466 0.6430743598444327 141 175 198
-0.6117639165994931 0.661159703009588 0.3842877643864272 71 80 83
-0.6669951290959277 0.5725710493430112 0.5837418688293531 103 115 127
-0.6536148870632772 0.591033954916978 0.5419664479705367 118 135 131
-0.6712886353199673 0.566704341244865 0.5963108233384787 120 131 139
-0.6603367702171965 0.5814645867943614 0.5630975010640349 138 159 151
-0.6603367702171965 0.5814645867943614 0.5630975010640349 138 159 151
-0.6790026048255545 0.5566231280728163 0.6186376202667108 70 76 75
-0.6696967160600662 0.5687252146366069 0.5914797419987856 71 72 86
-0.6953349174408241 0.536308317844206 0.6640588203393856 143 164 186
-0.6228343372394294 0.6401581093597088 0.4310456573561205 135 157 168
-0.6983141648309023 0.5325797175564051 0.671987017920687 164 191 218
-0.7010399457083543 0.5292937787801547 0.6792682461762009 116 133 130
-0.6625189837471873 0.5781750702234084 0.5694020660738643 55 59 54
-0.6800743615327256 0.5549497439245474 0.6213559715523611 123 148 168
-0.6800743615327256 0.5549497439245474 0.6213559715523611 123 148 168
-0.6111685699369466 0.66224940277689 0.37963090050196 30 35 33
-0.7019485321766444 0.5279961061174809 0.6815274573539272 203 224 216
-0.6297940744260698 0.6278260015382219 0.4577432276333668 83 94 54
-0.6543576328816172 0.5894699493037985 0.5434025894098261 69 77 66
-0.6543576328816172 0.5894699493037985 0.5434025894098261 69 77 66
-0.616725622128823 0.6513321402001127 0.4041546379192871 143 122 124
-0.616725622128823 0.6513321402001127 0.4041546379192871 143 122 124
-0.6583826267429145 0.5836826395947264 0.5561113448545756 142 150 140
-0.6814117879630192 0.5529994743855333 0.6248941497664685 164 173 187
-0.6612838483493196 0.579614153879172 0.5651572525262955 70 80 67
-0.6612838483493196 0.579614153879172 0.5651572525262955 70 80 67
-0.7003157713296677 0.5296858052416482 0.6769694706560707 167 200 220
-0.6077800607562734 0.6691419256518913 0.36258488643078296 145 131 135
-0.6121819015469692 0.6601711659290113 0.38336567146531486 78 74 80
-0.677873885086045 0.5573131808864822 0.6145224862665045 186 194 187
-0.7067506562500685 0.521844661358054 0.6939194647891065 164 173 183
-0.6913400994106204 0.5403713433156611 0.6524399491745035 109 113 137
-0.6913400994106204 0.5403713433156611 0.6524399491745035 109 113 137
-0.6670250113763982 0.5715532813252162 0.5824245634396896 84 94 111
-0.6604482836979031 0.5805697132317629 0.5622208376419693 77 85 78
-0.6604482836979031 0.5805697132317629 0.5622208376419693 77 85 78
-0.6557777381094019 0.5871624311857366 0.5474571223647416 144 148 123
-0.6892307258089977 0.5428701219739827 0.6465182170851498 132 150 179
-0.6704214972264845 0.566915848157132 0.592495736945263 113 129 136
-0.6174595319769954 0.6498286097740079 0.40634941142051206 228 239 229
-0.6231898804599934 0.6391871933778328 0.4304782892937752 245 241 230
-0.6570112996026978 0.5851230794275227 0.5508947990693229 146 151 142
-0.6034577637727113 0.6783439171464835 0.33895468042243543 157 130 139
-0.6880859326253164 0.5439887501354094 0.6430530688248566 157 182 192
-0.7059613923970728 0.5223153285863255 0.6915228463009243 206 230 230
-0.6070971917064467 0.6705435493619412 0.3573149487370986 154 144 134
-0.6790645316384063 0.555278038091847 0.61738620352061 157 171 167
-0.6807932720042974 0.5530466640561396 0.62233071037702 76 93 102
-0.7035454815541912 0.5250583365042757 0.6850254089708661 173 176 161
-0.7035454815541912 0.5250583365042757 0.6850254089708661 173 176 161
-0.7045016058752558 0.5238902931436507 0.687546633498598 223 239 228
-0.6737308752707954 0.5621327310273257 0.6017716318240491 163 174 172
-0.6106048728981851 0.663250252700126 0.37384336908892024 22 21 23
-0.6108965224209719 0.662648128730151 0.3750662536069493 45 50 48
-0.6247510319085412 0.6361029351377762 0.43528823061883737 121 158 178
-0.6260383962550045 0.633785935407611 0.4403884588651733 34 53 28
-0.7192814484343866 0.5062577756076089 0.72592177042846 95 96 116
-0.667265479070773 0.5704102528567472 0.5820031732628785 111 127 150
-0.667265479070773 0.5704102528567472 0.5820031732628785 111 127 150
-0.6116229376345709 0.6611305795355643 0.3776686658936275 37 35 34
-0.6116229376345709 0.6611305795355643 0.3776686658936275 37 35 34
-0.6597866860347706 0.5806684211543949 0.5587927530594614 132 136 130
-0.7022263107978871 0.5260974909026218 0.681121997871904 219 235 228
-0.614500815550475 0.65534955712174 0.3907925660614896 79 91 95
-0.625999219901074 0.6337699512539251 0.4397960990807812 42 54 32
-0.6815615228059014 0.5514566270983605 0.6238837581419527 63 86 101
-0.6815615228059014 0.5514566270983605 0.6238837581419527 63 86 101
-0.6174809664292911 0.6495075201851948 0.4038286879504056 223 234 224
-0.6889378183922558 0.5421413505512958 0.6446987848528007 75 79 90
-0.6805251354160391 0.5527415106420134 0.6208685558746533 143 167 167
-0.6544542686615542 0.5881174158864536 0.5414448244402355 125 136 133
-0.6836229698954948 0.5487448661478601 0.6296708814782519 163 167 185
-0.618146330095073 0.6482026396993583 0.4064983694594846 141 144 135
-0.6196911678672349 0.6452453793658004 0.4130367860156511 215 210 195
-0.6610109079451522 0.5786899637903581 0.5622233134130555 161 165 146
-0.7035568838377733 0.5241753471207723 0.6844480553226068 228 245 232
-0.6897508059915494 0.540861215125172 0.646722168719636 157 174 187
-0.6157395811533245 0.6528178660228625 0.3953162862534189 249 248 238
-0.6537281664751368 0.5889483824340173 0.5386600707140027 121 132 124
-0.6620882572059653 0.5770070281797265 0.5653179017792879 46 45 49
-0.6989339019829145 0.5294965753679234 0.6718444204264158 173 198 224
-0.6765766522594491 0.5574192165135086 0.6089531110863232 166 183 172
-0.6554392105659098 0.5862894085756554 0.5439142438861778 67 75 68
-0.6554392105659098 0.5862894085756554 0.5439142438861778 67 75 68
-0.6890828094157398 0.5412234566455748 0.6444402519878841 68 64 75
-0.6718107680676787 0.5634241824072646 0.5945358809235887 108 138 157
-0.6930196859929164 0.5363105715759886 0.6553527135992941 227 226 222
-0.6930196859929164 0.5363105715759886 0.6553527135992941 227 226 222
-0.615669685883085 0.6528368641814939 0.3936713322163514 165 152 150
-0.6820328593758106 0.5500313079011483 0.6243873102068098 74 87 113
-0.6585647561224722 0.58159161303901 0.5535989467315215 151 153 133
-0.6511379590284428 0.5923310327061488 0.5292793119696537 115 127 115
-0.6975286505785215 0.5306342872771479 0.667599597275668 182 201 216
-0.657106438729418 0.5835897715727668 0.5487819370571296 146 151 130
-0.6881374278062468 0.5421073322909005 0.6415238862597249 159 171 189
-0.6564012952799566 0.5845265668996493 0.5463741846222484 134 141 128
-0.6081908628526977 0.6681468097673757 0.3573623335415472 132 122 122
-0.6125453379056145 0.6590617191455111 0.3785178036326895 44 46 47
-0.6828840218034766 0.5487112065056796 0.6265928223786047 145 168 176
-0.6828840218034766 0.5487112065056796 0.6265928223786047 145 168 176
-0.6149996500045061 0.6540675880038894 0.3894363912229665 123 155 150
-0.6559404044720154 0.5850130664045109 0.5445704551016723 129 140 124
-0.6178736726199869 0.6483891866588001 0.4022805818698317 128 144 137
-0.681175736290369 0.5506233157765508 0.621406826824108 159 180 171
-0.6317291130637424 0.6230460429134379 0.45929951014286874 65 59 48
-0.6699028004579483 0.565428338961682 0.5881070768588194 118 144 150
-0.7024693022662771 0.5240906712599781 0.680580890059251 217 237 224
-0.6309810697996825 0.6241961357107746 0.4558619729980453 128 135 138
-0.6493969085983367 0.5943695996981322 0.5222833729983835 99 120 105
-0.6862798766634597 0.5436961874515317 0.6356014656586566 159 173 185
-0.651625710140388 0.5909401264706999 0.5296136997212371 43 51 44
-0.651625710140388 0.5909401264706999 0.5296136997212371 43 51 44
-0.657223931768586 0.5826778229921055 0.5479113338866608 150 151 131
-0.6833035160634071 0.5473838807233533 0.6270208347926752 94 99 114
-0.6833035160634071 0.5473838807233533 0.6270208347926752 94 99 114
-0.6140522008934651 0.655834497462019 0.3831911634439094 79 72 69
-0.6124904091002598 0.6590319777049579 0.37577319654256897 23 23 23
-0.6540055406401565 0.5872635475701332 0.5372288787574759 130 141 133
-0.6797131720335023 0.5518809201896405 0.6165238790071892 194 211 200
-0.6797131720335023 0.5518809201896405 0.6165238790071892 194 211 200
-0.6797131720335023 0.5518809201896405 0.6165238790071892 194 211 200
-0.607587565400393 0.6694001154159406 0.3513343525503563 168 154 155
-0.6820199908854375 0.548866349347239 0.6231700224469913 89 90 100
-0.6820199908854375 0.548866349347239 0.6231700224469913 89 90 100
-0.6932738511613455 0.5346068810171153 0.654931543659022 193 198 199
-0.6965877332337183 0.5305318246881159 0.6640862063619072 139 165 202
-0.6780458744618836 0.5537033944101342 0.6112894415597647 177 185 175
-0.6486939272502381 0.5949460650458871 0.5188875194580121 96 104 97
-0.616197601694065 0.6513992480519433 0.391825862954816 90 97 100
-0.616197601694065 0.6513992480519433 0.391825862954816 90 97 100
-0.7010112871132962 0.5247904766229389 0.6759194779321192 193 218 234
-0.7010112871132962 0.5247904766229389 0.6759194779321192 193 218 234
-0.6499713130887188 0.5928843772214447 0.522991266396723 43 51 40
-0.6499713130887188 0.5928843772214447 0.522991266396723 43 51 40
-0.6047610253376873 0.6756384312616242 0.33470017811418434 94 51 54
-0.6996777229159088 0.5263117138620551 0.6722230346385693 126 133 152
-0.6158933296968356 0.6519785559983717 0.3900908910544864 133 166 162
-0.7077716770886752 0.5165716285700996 0.694055862269302 171 192 213
-0.6839849148548515 0.5457946550202066 0.6282949075814231 140 152 180
-0.6516233981434548 0.5902246008193189 0.5282388939783722 118 121 112
-0.6494684119393325 0.5934293010077705 0.5208477183614313 52 56 51
-0.7064074861933173 0.5179118126046834 0.6902356252824899 178 191 189
-0.7050032702750407 0.5195253684705716 0.6864215318487363 190 199 189
-0.7050032702750407 0.5195253684705716 0.6864215318487363 190 199 189
-0.6507735572703691 0.5913108209146335 0.5250064195431783 102 107 108
-0.6704617685868233 0.5631255061181696 0.5878838460069015 105 134 155
-0.702572804908479 0.5222718825041672 0.6797421051402807 208 229 220
-0.6728088333572442 0.5599591804861326 0.5949828472511618 146 148 142
-0.6741158006684731 0.5582071988507089 0.5989004745429525 157 171 159
-0.6054958714319553 0.6740087848981905 0.33695508555732906 188 170 163
-0.6172831748783985 0.649067658994206 0.39514611571659397 161 169 168
-0.6791894123413446 0.5514985264576809 0.6139076987521805 108 115 110
-0.6168127967188483 0.6500001240228682 0.3929203181539845 87 111 109
-0.6168127967188483 0.6500001240228682 0.3929203181539845 87 111 109
-0.6980318682991123 0.527720828982134 0.6673001995064146 185 190 215
-0.68099024209965 0.5491179378758958 0.6191296263622629 63 66 64
-0.6146607891429912 0.6543544945500223 0.38286319733945734 124 144 132
-0.660639436258802 0.5766482885271996 0.5571064811805954 144 152 142
-0.6762968441003834 0.5550868186215603 0.6051557756022846 170 186 175
-0.7018367461273394 0.5228620795208984 0.6775493394410909 127 136 126
-0.6187548553058828 0.646061531441504 0.40102523826675407 120 108 96
-0.7092561385995924 0.5138799060204206 0.697488809457481 74 70 76
-0.6165831341399985 0.650367565958522 0.3909095688241507 162 183 181
-0.6165831341399985 0.650367565958522 0.3909095688241507 162 183 181
-0.6620952142146487 0.5743015310890857 0.5613398103560595 92 114 126
-0.7055653926248032 0.5181591951128851 0.6875165876291088 216 236 231
-0.6173599585434121 0.6487612595965188 0.39404686776813863 113 115 115
-0.65050135769095 0.591202683706352 0.5230864505476759 97 105 95
-0.65050135769095 0.591202683706352 0.5230864505476759 97 105 95
-0.6802526438950469 0.5494914209306637 0.6164051530849458 186 201 197
-0.6618760853595184 0.5744034211934013 0.5603426822985564 107 128 136
-0.696929434736869 0.5281776912421364 0.6636327084849496 163 176 202
-0.6990195180753269 0.525606609727405 0.6693932520242466 210 222 240
-0.641854857914038 0.6045662124833159 0.49232732443804905 76 81 84
-0.617098007341444 0.6491897876993818 0.3918997338953758 154 181 178
-0.617098007341444 0.6491897876993818 0.3918997338953758 154 181 178
-0.6091394052283974 0.6659105368833848 0.35283210194014997 51 56 57
-0.6809557123595574 0.548092386492045 0.6179974710892344 49 56 51
-0.6786933301551031 0.5510106476052598 0.611307055649781 174 188 182
-0.6942094104765667 0.5311894866449838 0.6558186164945146 193 211 212
-0.7030436459510515 0.5201876021909525 0.6800740455648228 216 232 221
-0.6057045327462407 0.6735787431919341 0.3334381258808725 92 50 45
-0.6717038288002961 0.5601060540471313 0.5900976260104916 78 85 78
-0.6186001895735772 0.6460306517631522 0.39751518834252425 27 24 16
-0.6734979032733427 0.5576211256556124 0.5954744910059797 164 165 161
-0.7017475516845633 0.5216493763556882 0.676467549990204 203 226 222
-0.7017475516845633 0.5216493763556882 0.676467549990204 203 226 222
-0.6725267536804985 0.5589194743527244 0.592519210292674 169 178 158
-0.6976071558227254 0.5266501859222604 0.6650318380682508 87 85 97
-0.670254887990102 0.5618964409856426 0.5854553001259281 43 48 47
-0.6181469745925238 0.6468942549792895 0.3950555922064237 144 153 150
-0.6089194064791379 0.6663540818211333 0.34970669958280237 172 163 153
-0.6316097824232936 0.6213373491291454 0.4517589858610414 138 150 150
-0.671052169797527 0.5605033768299008 0.5875491276924141 172 177 176
-0.7001358018177314 0.5230994099807407 0.6717205147960974 200 218 235
-0.6048310521029268 0.6756131082124912 0.32657598976519653 64 31 38
-0.6177789815583755 0.6475242490328483 0.3923518898382992 145 150 148
-0.619167753250802 0.6447218161690075 0.39868505774773993 104 96 83
-0.619167753250802 0.6447218161690075 0.39868505774773993 104 96 83
-0.7067313758600492 0.5149924795755382 0.6896534737852186 143 158 167
-0.6097686216680764 0.6644504933891469 0.3529195166576791 154 146 133
-0.6097686216680764 0.6644504933891469 0.3529195166576791 154 146 133
-0.6097686216680764 0.6644504933891469 0.3529195166576791 154 146 133
-0.7077210417057701 0.5137567139802933 0.6923016596689064 141 159 190
-0.6761617527566569 0.5533933996552863 0.6027987510594378 176 183 176
-0.7028703260985114 0.5194880935240271 0.6790542866647438 149 162 154
-0.6067151935126455 0.6712908893531365 0.3362622480742362 161 148 150
-0.6442947344285733 0.5996988893352924 0.49894450025303 18 19 10
-0.6149693208511973 0.6532412019003495 0.37829748506318966 39 43 44
-0.6300687799278996 0.623875163161158 0.44474133330285714 128 136 89
-0.6808770125488366 0.5468702395462993 0.616528032594871 139 160 158
-0.7015930391133602 0.5207679978741971 0.675387820027103 218 231 217
-0.7015930391133602 0.5207679978741971 0.675387820027103 218 231 217
-0.6321981416011917 0.6199815710113515 0.45299419948133635 75 67 77
-0.6935723965678129 0.5306236833967276 0.6530514706486255 171 197 204
-0.6141215900655195 0.6549889686937944 0.373681150605341 40 38 37
-0.6745497701301306 0.5551913779868431 0.597570556917282 162 176 165
-0.667097077514312 0.5653815246134326 0.574616198046714 75 80 95
-0.6857379059224354 0.5404499449534725 0.630616576145748 112 123 150
-0.6721403757975306 0.5583932787095249 0.5901787596753535 78 87 77
-0.6721403757975306 0.5583932787095249 0.5901787596753535 78 87 77
-0.6721403757975306 0.5583932787095249 0.5901787596753535 78 87 77
-0.7022084269908512 0.5198516194173459 0.6769785023080029 200 223 219
-0.697261564368612 0.5258732403447294 0.663270293181702 148 171 186
-0.6610604277977765 0.5738428801963598 0.5552745341307299 138 153 149
-0.6967401578862105 0.5264622433730293 0.6617795883280145 179 193 212
-0.6967401578862105 0.5264622433730293 0.6617795883280145 179 193 212
-0.6535990272039085 0.5847509326574558 0.5304486177839458 116 126 114
-0.6523166353835521 0.5866129668601856 0.5259486085952978 96 83 75
-0.6147187271997249 0.6536433862961271 0.3754811073284362 38 40 41
-0.7035461439450612 0.5178343287627969 0.6804198989956387 222 239 228
-0.6311374928064237 0.6215777180324709 0.44767738657032247 63 70 43
-0.6311374928064237 0.6215777180324709 0.44767738657032247 63 70 43
-0.6175984749330561 0.6476095575513127 0.3889250117195895 122 128 123
-0.7190746517088944 0.4992249141162731 0.7220811930908959 80 80 96
-0.6100706997193307 0.6636996944012749 0.35151635576481366 77 61 79
-0.6739390855644821 0.5554381952838318 0.5951159546101574 106 109 100
-0.6909551320506453 0.5332213788504273 0.6451391109349442 142 166 184
-0.695944520852923 0.5268683788996005 0.6591690892782004 108 104 115
-0.702796121928242 0.5184340228882086 0.6781835071753254 151 167 160
-0.6699519755584484 0.5607348585159511 0.5827073234687089 89 95 90
-0.6823442033912043 0.5440682438523095 0.6200557948048955 138 163 173
-0.6730337543749976 0.5564651394724613 0.5921438232954211 151 157 156
-0.6674600108437962 0.5640636429842083 0.5747763042274234 81 92 89
-0.6620091945513604 0.5717744266320434 0.5573805484979746 42 47 46
-0.6318877456015304 0.6199839655134363 0.4498285398772911 118 135 131
-0.6318877456015304 0.6199839655134363 0.4498285398772911 118 135 131
-0.6168490406938226 0.6490433008100722 0.38426521029757377 130 137 132
-0.6074585550875394 0.6695881336116336 0.3362562891651215 150 132 139
-0.6731342571589531 0.5561526347886651 0.5922661292399484 154 158 152
-0.6934867464673662 0.5296156138428688 0.6520283558318916 116 124 137
-0.6934867464673662 0.5296156138428688 0.6520283558318916 116 124 137
-0.6791115693179933 0.5480829822947483 0.6102703737946285 162 179 175
-0.6499326422995262 0.5897791290595054 0.516834504128451 39 40 44
-0.6499326422995262 0.5897791290595054 0.516834504128451 39 40 44
-0.6689911982889013 0.5617530535005838 0.5793639871915006 88 94 89
-0.6099912518763119 0.6638289641880222 0.34934515920086484 153 149 154
-0.6998757534657204 0.5215062862489266 0.6698221039064991 141 146 147
-0.6662251138700171 0.5655462272239452 0.5705808830925159 127 128 132
-0.6172743448410444 0.6480897957999856 0.3856174471218021 103 107 108
-0.671512660962677 0.5580553423201964 0.5869498399917699 166 172 161
-0.6204946192382815 0.6414728127606979 0.4003667818425197 119 103 96
-0.7217549329289195 0.49517147780488013 0.7287974619999545 157 169 179
-0.643578962891942 0.5996485651082879 0.49367761600114096 62 87 91
-0.6678063967755136 0.5630880819852163 0.5752870505115687 81 95 91
-0.6913955071729858 0.5317900766214827 0.6457627908334215 152 170 193
-0.6988523256685517 0.5224292373415873 0.6667700651568093 186 199 207
-0.628544309496914 0.6257941198091804 0.4349825561277591 71 87 53
-0.6699025041467738 0.5600352164743426 0.5816940453510534 156 162 151
-0.6290517591214229 0.624836071554062 0.43703654388963764 79 91 55
-0.6804317383267436 0.5457744626893419 0.613692798241261 130 145 161
-0.673363935547622 0.5552470049150274 0.5923537340592264 159 170 162
-0.7215787280027006 0.495034942683543 0.7282129321059834 161 173 183
-0.6109282871222561 0.6616727350031135 0.3524453857829771 150 140 140
-0.693783114404997 0.528348698212591 0.6522610526897656 203 218 221
-0.6707877247517099 0.5585521187084369 0.5841643278926173 116 124 113
-0.7069870947122752 0.5121071582565545 0.68899524671025 156 174 197
-0.6925884479637652 0.5297746800889606 0.6488113004910749 88 101 109
-0.6656745796369652 0.565589832934241 0.567942733878893 80 84 79
-0.6028783855146489 0.6805140980227344 0.30622116399685567 168 166 132
-0.7024287831799179 0.5174142686863332 0.6763459924810253 227 246 231
-0.6152525820154541 0.6521608742963599 0.3737297708080811 144 128 122
-0.7002575147802438 0.520071993765868 0.6703158746585202 216 224 214
-0.6147642214953505 0.6531936840605558 0.3710952736942769 85 73 71
-0.6030148502717748 0.6801950224957315 0.30667499449769786 159 158 132
-0.7078314621660459 0.5107090479494732 0.6911127263309034 96 95 105
-0.702385487760235 0.5173139760551427 0.6761419833561082 227 246 231
-0.6054627201209682 0.6742901575912672 0.32106071070380754 170 155 129
-0.6621134709640248 0.5704968782554032 0.556226627806725 146 161 153
-0.6742203938326764 0.5533956875980387 0.5942873102853883 97 107 101
-0.6899435987981092 0.5326662337295102 0.6409111053375401 147 173 189
-0.6899435987981092 0.5326662337295102 0.6409111053375401 147 173 189
-0.6157814186455548 0.6509414679849912 0.37531218183806303 123 111 109
-0.6107975897146266 0.6618963747799645 0.3497059381917642 50 58 57
-0.668546418837851 0.5610518952284848 0.5764758168587456 172 174 155
-0.6983731391933178 0.5219101280170937 0.6647633710639007 107 113 108
-0.6983731391933178 0.5219101280170937 0.6647633710639007 107 113 108
-0.7068326909577751 0.5115173541375787 0.6881888590170532 151 169 192
-0.6701169360391095 0.5587420075188619 0.5812767863718722 112 123 113
-0.7041201535669718 0.5147178619520095 0.6806830393736537 216 232 221
-0.6751326295063389 0.5518336432348169 0.5967643504257769 154 169 155
-0.6656350888898935 0.5649686814967982 0.5670065911218461 161 170 157
-0.6162091665518489 0.6499519369136894 0.3765898509884314 133 126 117
-0.6801182049441248 0.5449642572669157 0.611686039355281 135 157 169
-0.6290538725756394 0.6241796989692556 0.4344720355831672 82 87 60
-0.6622930900272844 0.5695893033249791 0.5559776634796373 84 95 79
-0.642701846598513 0.6000212221962331 0.48808199544902997 57 59 59
-0.6977451607653631 0.5221427437101397 0.6626749759001375 204 223 220
-0.685198025193116 0.5380456012473965 0.6265606344363913 96 113 140
-0.685198025193116 0.5380456012473965 0.6265606344363913 96 113 140
-0.7034052823810757 0.5150964802849188 0.6784496977844339 158 166 149
-0.7034052823810757 0.5150964802849188 0.6784496977844339 158 166 149
-0.6309819035028367 0.6204821172305214 0.4420983655559819 72 81 68
-0.6662300553858025 0.563753267781884 0.5684780969416058 105 118 96
-0.6736904063838138 0.5532977651906104 0.5918486434032072 153 168 160
-0.6736904063838138 0.5532977651906104 0.5918486434032072 153 168 160
-0.657667021658926 0.5762213391603008 0.5404210408612891 108 128 123
-0.657667021658926 0.5762213391603008 0.5404210408612891 108 128 123
-0.672376330252395 0.5550099879365126 0.587689842986469 143 165 160
-0.7009970270108684 0.5178039820280502 0.6716183140268215 242 251 238
-0.7000048038774861 0.5189801507159983 0.6688163227654529 148 153 144
-0.6991495895375667 0.5199672939255006 0.6663770680423547 220 235 231
-0.6905464757889718 0.5307534517555945 0.6418554548195873 94 92 91
-0.663068699770663 0.5679873835087544 0.5579085420332287 145 159 148
-0.6808897376218914 0.5432431093554545 0.6134069266159786 97 106 126
-0.6879050372077503 0.5340648818761005 0.6341347196795936 160 185 205
-0.6192711428507418 0.643249203048604 0.38929322143843226 81 80 76
-0.6831187330622149 0.5401624838010519 0.6199458759925941 145 162 183
-0.6550154426442354 0.5797906205158627 0.5307969166416938 115 125 113
-0.6550154426442354 0.5797906205158627 0.5307969166416938 115 125 113
-0.6437143634805147 0.5977939859541904 0.4906662649766194 78 99 97
-0.6437143634805147 0.5977939859541904 0.4906662649766194 78 99 97
-0.6731117700819785 0.5535388741651012 0.5895176181204244 95 104 107
-0.6801849681856988 0.5439090178303503 0.6110651876426362 119 141 169
-0.6417949642529485 0.6009452401666547 0.48336922475609706 14 15 11
-0.6652098270595938 0.5645676877505561 0.5644535633707809 136 149 135
-0.6529206309745204 0.5829018585310716 0.5234064988754822 100 110 104
-0.6615631974398994 0.569831687719068 0.5525378650242854 168 172 153
-0.6070384852568422 0.6705897853030738 0.32471854619876633 85 36 44
-0.6584083945871669 0.5744819771653245 0.5420275421246631 41 46 44
-0.6964699363491672 0.5226205773224756 0.6584142532502696 211 225 214
-0.6916699001779615 0.5286324052076072 0.644642202040483 213 217 212
-0.6885854228367804 0.5325771161866466 0.6356889271147597 84 100 107
-0.6885854228367804 0.5325771161866466 0.6356889271147597 84 100 107
-0.6639728001571981 0.5661082685873021 0.5601604860713154 154 160 149
-0.656918223309534 0.576550717880016 0.5367647517853047 45 47 48
-0.6120315217728561 0.6589139055834197 0.35152003689336075 140 135 132
-0.6563716928796068 0.5773042885085322 0.5348034230598511 45 51 46
-0.6563716928796068 0.5773042885085322 0.5348034230598511 45 51 46
-0.6606505281089227 0.570827847700986 0.5490781877402227 129 132 123
-0.6903441649006039 0.5301124358490042 0.6406662338547975 169 179 179
-0.6558879250087875 0.5779227880138893 0.532985645027242 50 48 38
-0.6090472936531172 0.6658106264782045 0.33462961608344094 159 138 147
-0.6116827158988145 0.6596814177256662 0.3489736784229652 72 67 69
-0.7030662840412272 0.5140234114846759 0.6767527429389821 210 226 225
-0.6944845827518609 0.5246808871647027 0.6524937859877391 187 210 205
-0.6524276625022706 0.5831887225596117 0.5209274243837996 52 54 48
-0.6524276625022706 0.5831887225596117 0.5209274243837996 52 54 48
-0.6629064771559225 0.5672843646116242 0.5562292861788343 150 150 126
-0.6540543497165486 0.5805793651735203 0.5264529804478449 52 55 53
-0.6540543497165486 0.5805793651735203 0.5264529804478449 52 55 53
-0.6789404963823947 0.5446745499011935 0.606550557885682 169 192 178
-0.6103119666095502 0.6628254476943861 0.340718906097637 149 131 138
-0.6305472226588196 0.6204331520656571 0.43725654453979695 172 196 194
-0.6649990608649896 0.5640434275167525 0.5628151398145708 104 104 90
-0.6994617316249696 0.5180885589445982 0.666439628922476 237 246 236
-0.6849277285509364 0.5366149094769073 0.6244220740018293 127 141 164
-0.6744870193775534 0.5505943624330639 0.5927802034298402 156 166 160
-0.662194764080505 0.568044724394878 0.5535467889687319 117 114 109
-0.662194764080505 0.568044724394878 0.5535467889687319 117 114 109
-0.6189816444630193 0.6434773584239591 0.38492414522021906 37 31 32
-0.6881952346003376 0.5321041042339075 0.6338778144841936 156 178 176
-0.6734819380505115 0.5517656616578083 0.5894601461008557 88 95 92
-0.6734819380505115 0.5517656616578083 0.5894601461008557 88 95 92
-0.6582712260088792 0.5736831292538211 0.540203137810943 106 109 117
-0.6870108140249587 0.5335255041353811 0.630316372107559 90 100 107
-0.6554713121242148 0.5778959068871645 0.5305985443216543 96 107 111
-0.6554713121242148 0.5778959068871645 0.5305985443216543 96 107 111
-0.6535489078813598 0.5807282204920895 0.5237369383032261 115 127 129
-0.6535489078813598 0.5807282204920895 0.5237369383032261 115 127 129
-0.6856742629456601 0.5350126692580673 0.626185349815985 64 74 91
-0.70510685338109 0.5104239481623707 0.6819189272124123 187 205 204
-0.6834566810132645 0.5376971401606494 0.6194103567340579 128 148 166
-0.6828360471718089 0.5384477778267472 0.617497082281998 73 72 76
-0.6828360471718089 0.5384477778267472 0.617497082281998 73 72 76
-0.6126242629186013 0.6573576051434866 0.3504516489397249 83 81 81
-0.6548443107733704 0.5783523945776373 0.5276991794807447 52 55 60
-0.6319697625683117 0.6171920619996432 0.4412879817193036 72 82 66
-0.6610029177123732 0.5689420782464222 0.5485353686889269 97 84 68
-0.7213232992081666 0.4905033546136969 0.7260148558915037 161 186 190
-0.703281765196793 0.5121707211770791 0.6765927877350479 220 241 233
-0.6122530478432641 0.6581919834415046 0.3479596929765947 163 160 152
-0.6122530478432641 0.6581919834415046 0.3479596929765947 163 160 152
-0.6119412229125567 0.6589123431162055 0.34617943296162146 170 156 157
-0.6119412229125567 0.6589123431162055 0.34617943296162146 170 156 157
-0.6288202393537117 0.6230811973842331 0.4275268518339357 251 243 230
-0.6599889905605538 0.5702889736568882 0.5449343447762112 70 67 76
-0.6654191203764336 0.5621632413769412 0.5627560198849326 100 100 94
-0.6777925649350237 0.5447755932964837 0.601839425727218 138 149 141
-0.6823406957703443 0.5385976003682517 0.6156280590670844 141 162 164
-0.6422887004780088 0.5984300295846772 0.48160384731320444 70 88 89
-0.6422887004780088 0.5984300295846772 0.48160384731320444 70 88 89
-0.6557287965134179 0.5765335654437509 0.5301177048531845 43 46 51
-0.6737870085316046 0.5500127583524286 0.5891947959466218 83 86 84
-0.6737870085316046 0.5500127583524286 0.5891947959466218 83 86 84
-0.7051077417937723 0.5092753882693278 0.6814129922261736 170 195 205
-0.6583962351153794 0.572303913035167 0.5390595204723597 65 60 69
-0.6746086785371747 0.5488207707310909 0.5917146285944779 167 178 158
-0.6293932285743679 0.6216923443026496 0.42896216688146654 111 133 131
-0.6973745466400535 0.5187356787867288 0.6594737240839539 239 253 241
-0.6249383386805817 0.6305024803714204 0.4091703723206181 241 224 215
-0.6177515421156891 0.6456526491848963 0.3748307839670379 108 108 102
-0.6889616553219607 0.5294573728322106 0.6350462855862552 190 204 198
-0.6830988470431998 0.5371282497196529 0.617574485380477 74 74 74
-0.6830988470431998 0.5371282497196529 0.617574485380477 74 74 74
-0.6830988470431998 0.5371282497196529 0.617574485380477 74 74 74
-0.630180010141686 0.6201347626044008 0.4322009161272267 93 106 104
-0.6999187120436593 0.5154406952317799 0.6666734446681865 231 244 236
-0.6197165268536007 0.6413545741275095 0.38430575601120726 27 24 19
-0.6650052631323441 0.5622235993410748 0.5608118855904521 140 158 145
-0.661001558704944 0.5680887466487615 0.5474916194444359 70 73 64
-0.64558007705766 0.5924136477084985 0.4931077320139182 34 33 29
-0.6855144058250017 0.5336234173687199 0.624602030407825 88 103 105
-0.6855144058250017 0.5336234173687199 0.624602030407825 88 103 105
-0.6822936368613924 0.5378447106614193 0.6148862980123668 65 77 77
-0.6822936368613924 0.5378447106614193 0.6148862980123668 65 77 77
-0.6791928012462064 0.5420145307691334 0.6054447664685139 64 71 86
-0.6589127077088682 0.5710257964178904 0.5401841882530627 96 112 118
-0.6965625072445641 0.5192153960052235 0.6568607426376932 230 244 232
-0.6838652808245 0.5356245599244545 0.6195362242130736 166 179 187
-0.6797920168429812 0.5410824038022795 0.607185455866625 124 150 167
-0.7190593817098382 0.4916393098523512 0.719487929938582 81 70 78
-0.6781797265607591 0.543181591512454 0.6021678597312101 171 186 172
-0.6292842835999877 0.6215417131662154 0.42717115608540646 120 136 135
-0.612843440885808 0.656615511468497 0.34700188182658354 50 49 51
-0.612843440885808 0.656615511468497 0.34700188182658354 50 49 51
-0.6596103866262085 0.5696090569073933 0.5421067775358548 69 66 75
-0.6133281516758047 0.6554659954979184 0.3493575737463337 141 135 128
-0.6844335374777563 0.5344141577098038 0.6209305949704902 87 111 103
-0.6844335374777563 0.5344141577098038 0.6209305949704902 87 111 103
-0.6826674262955754 0.536713572547022 0.6155651709824961 145 173 174
-0.7060215313891792 0.5068753948253306 0.6834366582972865 77 82 103
-0.631069960109165 0.6178200372501675 0.43396848891130335 164 184 185
-0.6310833258111688 0.6177865320836686 0.4340001725733564 170 188 187
-0.6833715672157781 0.5355636983141199 0.6175491020759781 82 86 75
-0.6833715672157781 0.5355636983141199 0.6175491020759781 82 86 75
-0.6833715672157781 0.5355636983141199 0.6175491020759781 82 86 75
-0.6178989229592001 0.644990935591035 0.3725923133030628 95 89 84
-0.67905975887519 0.5412956650859678 0.6043439732385625 81 83 93
-0.67905975887519 0.5412956650859678 0.6043439732385625 81 83 93
-0.6429348450930232 0.5961639147043066 0.4817069587226353 16 13 5
-0.6298690629615564 0.6200750489994746 0.4285512747907269 133 167 173
-0.6322348221920175 0.6155116264069573 0.4386753391550686 157 170 172
-0.7002227480361597 0.5136857023663363 0.6668864288461008 233 242 232
-0.6204692511335488 0.639318919645095 0.385093090287363 34 30 25
-0.6770503300307796 0.543930442514271 0.5980426799003349 164 175 172
-0.6083406124633532 0.6674522544621498 0.31922418576839934 154 152 122
-0.6979571980949768 0.5163713651853847 0.6603247792501945 228 242 224
-0.6590655138622535 0.5697713740299313 0.5394390355992973 99 111 117
-0.6590655138622535 0.5697713740299313 0.5394390355992973 99 111 117
-0.6688615182327589 0.555212825024006 0.5719064238640098 160 165 144
-0.6764132416738152 0.5444945345016117 0.595809946041185 171 179 172
-0.7040238956699337 0.5085384812383266 0.6774932608310873 192 216 216
-0.6186408158612365 0.643214308574016 0.3752449606319111 110 107 103
-0.7039467563848447 0.5085804462447742 0.6772533794227228 192 216 216
-0.643907609301162 0.5940889765424497 0.48463848749122623 85 91 86
-0.6176841269947937 0.6452953607350701 0.3699413394424519 138 123 137
-0.6176841269947937 0.6452953607350701 0.3699413394424519 138 123 137
-0.6824547331310017 0.5360285362063133 0.6142429112756864 92 102 109
-0.675083852085626 0.5461011455472422 0.5914574927175399 165 174 161
-0.6775714965265214 0.542609694592366 0.5991896940153685 55 63 53
-0.679339484129073 0.5400326295035115 0.6045466006215466 147 161 155
-0.6319031397279126 0.6156530391672151 0.43573999202487873 83 94 91
-0.6137563267052979 0.6542635153955219 0.34831776710412377 149 124 128
-0.7207865803984018 0.487741489845649 0.7236971990267277 110 116 135
-0.7207865803984018 0.487741489845649 0.7236971990267277 110 116 135
-0.680802272631483 0.5379482494935593 0.6089778943594073 150 171 169
-0.6444647581396477 0.5928317255569142 0.48619217821821675 80 77 73
-0.68299116442072 0.5349402521801606 0.6156243121229983 162 178 171
-0.692221001580019 0.5227255887823729 0.6431637136643882 213 224 216
-0.7024813166793763 0.509717076206311 0.6728169015560915 213 230 226
-0.6653876162619418 0.5594877451263242 0.5597822471664969 164 168 156
-0.6661278569443865 0.5583389626866919 0.5621643392534856 110 112 106
-0.6661278569443865 0.5583389626866919 0.5621643392534856 110 112 106
-0.6799258298963394 0.5388294359737573 0.606061987896573 117 124 117
-0.6737664217303954 0.5473321669716336 0.5867978680561468 164 176 164
-0.6092634777675889 0.6651365280826774 0.32143302094860715 130 122 92
-0.7006992112777357 0.5116735433787438 0.6676174760153879 227 239 227
-0.6760558999099627 0.5440727090624502 0.5939681294696016 86 97 89
-0.629575099076566 0.619858535359072 0.4245051739429772 87 92 63
-0.6770106964032739 0.5423893957256511 0.5966829257491921 155 169 158
-0.6910842881599829 0.5234542929512411 0.6394106185213532 216 232 225
-0.6647810253451575 0.5597836421473632 0.557161310184616 125 130 109
-0.6747015626152881 0.5454465642468362 0.5892946815360519 61 56 53
-0.6204609200730403 0.6387536429181428 0.38115632558692675 149 164 160
-0.7186630758927488 0.489079920559994 0.7176315706944127 63 70 79
-0.717985147764068 0.48984465415779704 0.7157638715462733 65 74 94
-0.62826251924918 0.6222382714031935 0.4177689353629889 234 225 212
-0.6210110374914687 0.6374547537713056 0.3833138609089531 75 84 74
-0.6781211153857788 0.5404046937531742 0.5998177956016688 153 170 167
-0.6917359317778687 0.5221889007661517 0.641115568011751 110 107 99
-0.6143951986007711 0.6525412199646602 0.34856903188070687 155 147 140
-0.6754854309951447 0.5439767192490936 0.5914807698610632 141 155 143
-0.6190978053793775 0.6416511072605787 0.3733139093743038 116 116 116
-0.6621756101849503 0.5632584398637996 0.5479729928171546 154 146 129
-0.6942385251250637 0.5187556983276913 0.6483853450910185 230 242 230
-0.6139975548760598 0.6534534429717149 0.345814920909821 41 42 40
-0.6923916181115374 0.521064889085887 0.6429118506379716 219 229 217
-0.6822028530126186 0.5345248413481567 0.6122371124324688 155 170 162
-0.6994368002157869 0.5119977573472467 0.6634496022964838 213 232 229
-0.6111294654215936 0.6604218813234694 0.32882226271119414 93 50 53
-0.6715640533055429 0.5491771426784201 0.5786961370148722 108 116 109
-0.6715640533055429 0.5491771426784201 0.5786961370148722 108 116 109
-0.6087202666645346 0.6664944988562903 0.3141956349184381 146 125 117
-0.6742315142528785 0.5453609058580833 0.5872136283289892 154 168 164
-0.6534204175149906 0.576651310083154 0.5171730200324982 62 47 51
-0.6534204175149906 0.576651310083154 0.5171730200324982 62 47 51
-0.667196131466472 0.555420959367636 0.5643854997482559 168 168 154
-0.6656645279753939 0.5576536291018772 0.5592892209925587 161 170 157
-0.6656645279753939 0.5576536291018772 0.5592892209925587 161 170 157
-0.6846300646631123 0.5309790625558687 0.6194797337714496 170 184 180
-0.6595992456179269 0.5667469717348417 0.5386837404065211 107 106 122
-0.6595992456179269 0.5667469717348417 0.5386837404065211 107 106 122
-0.6741962382991085 0.545076417059995 0.5868400264215077 156 171 163
-0.7201916809530047 0.4859436300351039 0.7215287508359752 170 200 205
-0.6912692906107114 0.5217664823391646 0.6392005028356033 212 223 220
-0.6213100351839498 0.6364092147848063 0.38241622867555164 144 164 159
-0.6811186262760032 0.5351442462023043 0.6083390699120874 171 182 174
-0.6641118087099686 0.5594379330951486 0.5535771127784064 150 151 142
-0.6599874715597557 0.5656678385969378 0.5394870167108115 96 102 109
-0.6599874715597557 0.5656678385969378 0.5394870167108115 96 102 109
-0.6148433140639842 0.6512555415962461 0.34798925028089617 78 69 72
-0.6196548538504361 0.6400389126632365 0.37355436713861756 83 81 80
-0.6261726098418189 0.6258571055944426 0.40551514859186216 206 182 160
-0.6744612205372157 0.5440951332585248 0.587218892685462 166 178 172
-0.6820969917789107 0.5334783229419949 0.6111487795599437 141 162 153
-0.6803655317336409 0.5356716439658842 0.6056749280075989 88 85 77
-0.7031196563328974 0.5059424679648683 0.6734904510103732 77 81 92
-0.7016833591829427 0.5077293098541868 0.6693559006375208 201 217 210
-0.6901496545932009 0.5224873134838838 0.6354809543938694 214 225 215
-0.660833930058867 0.5638586377865329 0.541856311993437 82 76 77
-0.6644128864036442 0.5584012982186578 0.5540193423209372 77 75 45
-0.6644128864036442 0.5584012982186578 0.5540193423209372 77 75 45
-0.6587191930334635 0.5670049131275067 0.5343880743828457 59 55 60
-0.7005313056926877 0.5088629987650461 0.6659091848257505 164 170 153
-0.7005313056926877 0.5088629987650461 0.6659091848257505 164 170 153
-0.6598141727970093 0.5652059097070057 0.538091290961825 59 54 55
-0.6598141727970093 0.5652059097070057 0.538091290961825 59 54 55
-0.6760123676891705 0.5413070919018844 0.5917140254961323 130 147 138
-0.6069380442771148 0.6712066640222734 0.2977215088698939 72 54 61
-0.6914801670318417 0.5203222613055154 0.6392473909658738 199 219 214
-0.6141458577619863 0.6527925213742723 0.3418712699632121 167 153 157
-0.6141458577619863 0.6527925213742723 0.3418712699632121 167 153 157
-0.6782493847745423 0.5380177507730319 0.5986729093963755 55 59 54
-0.6609336284396167 0.5633083036080919 0.5417818775548318 67 66 62
-0.6609336284396167 0.5633083036080919 0.5417818775548318 67 66 62
-0.6609336284396167 0.5633083036080919 0.5417818775548318 67 66 62
-0.6796742708621379 0.5360021949092263 0.6031148315461009 139 150 148
-0.6791521296275056 0.5366724680930868 0.6014462696178109 145 158 166
-0.6676396758110605 0.5530770549125872 0.5643262838886952 167 171 160
-0.6663398960323692 0.5549437098762895 0.5599461872313078 153 166 150
-0.6655525406803319 0.5560811296556558 0.5572751622188821 169 168 154
-0.6254645420080093 0.6268253074652098 0.3999376578812169 179 191 179
-0.6631595788807023 0.5596105927587961 0.5491109085472319 157 156 136
-0.6583694738450584 0.566994710530646 0.5325432008029507 105 101 106
-0.6844340923189978 0.529115218786608 0.6176264581837414 116 123 118
-0.6844340923189978 0.529115218786608 0.6176264581837414 116 123 118
-0.6262211006667677 0.6251439559103042 0.40324333767489895 62 67 65
-0.68169698172026 0.5325562475465286 0.6090049418095518 145 167 162
-0.6852651954989106 0.527593140835867 0.6199519239597698 184 205 196
-0.6852651954989106 0.527593140835867 0.6199519239597698 184 205 196
-0.6604007343252474 0.5633793553892117 0.5391555292256232 94 103 116
-0.6604007343252474 0.5633793553892117 0.5391555292256232 94 103 116
-0.6808991234711126 0.5334872869611824 0.6064196486853266 155 166 164
-0.618261310494941 0.6427384613052272 0.3623628941694013 99 91 92
-0.6151452631033205 0.6501807673268314 0.34509446702397867 69 58 61
-0.62572527253366 0.6260088436546359 0.40009387856713857 177 189 183
-0.6306003652686598 0.6158454507961694 0.42268532770573547 139 168 119
-0.6660163594740652 0.5547486350138414 0.5582545431015937 168 169 143
-0.620233358772299 0.6381001884133402 0.37229629268154846 81 81 81
-0.6915169107504214 0.5189832403958858 0.638746866182481 201 222 214
-0.6901658740079593 0.5207371838392856 0.6346761693903962 200 216 205
-0.6209910574259901 0.636349818019726 0.37608754007130346 18 18 24
-0.6322113596061063 0.6124350675237887 0.4293746449195072 71 91 86
-0.661157461172621 0.5618349037363594 0.5413999336046708 75 69 70
-0.661157461172621 0.5618349037363594 0.5413999336046708 75 69 70
-0.683916690047705 0.528924193410025 0.6155303329145702 170 190 191
-0.683916690047705 0.528924193410025 0.6155303329145702 170 190 191
-0.685692736423282 0.5264753421263138 0.6209694779340097 102 119 105
-0.6819028685912851 0.5316058628958304 0.609247634696507 57 74 71
-0.6270575827992242 0.6229589482924317 0.4055899314015857 118 137 134
-0.6626827059837176 0.5593578530671673 0.5465316441499222 156 151 130
-0.6131714128215139 0.6549876590712929 0.33232019904114835 105 95 108
-0.6830606463291078 0.5299123966390246 0.6127819738807113 95 102 95
-0.6787214664472841 0.5358191285659816 0.599154634997375 63 75 85
-0.6847389619696568 0.5274081444155249 0.6178469037186339 82 85 76
-0.6847389619696568 0.5274081444155249 0.6178469037186339 82 85 76
-0.6949307563496457 0.5139182523754345 0.6486632140948067 166 183 174
-0.6949307563496457 0.5139182523754345 0.6486632140948067 166 183 174
-0.6797131251474762 0.534287943839094 0.6021879238499538 130 154 160
-0.6933904768595321 0.515891007823508 0.6440661252333921 217 231 220
-0.6871777628284168 0.5239547900079965 0.6252424421142768 181 204 200
-0.6824081813795448 0.5304001676339991 0.6105247852110212 123 141 152
-0.6187176884103829 0.6413718789731162 0.3624752637323269 131 124 127
-0.6830310294345375 0.5293459046999237 0.612349126033806 92 95 93
-0.6830310294345375 0.5293459046999237 0.612349126033806 92 95 93
-0.685378255429733 0.5260194452536961 0.6195396331275221 181 198 189
-0.6933348650050292 0.5154466464315662 0.6436818254259613 216 227 219
-0.679856527403569 0.5335733797857846 0.6023268965301467 119 143 155
-0.6979192526399738 0.5094083904319522 0.6572479840820804 212 231 216
-0.6822683325166803 0.530091670776558 0.609806100771656 83 101 108
-0.6822683325166803 0.530091670776558 0.609806100771656 83 101 108
-0.6919426200785826 0.5171081111118184 0.6394377029361406 207 225 218
-0.6098761597962896 0.6634371724849821 0.3091318893862689 117 122 113
-0.6725061251651622 0.5436014004318356 0.5784781812438149 166 181 167
-0.661689599872862 0.559673742037455 0.5419413048532584 80 78 67
-0.6848790625565346 0.5260415630391875 0.617660129992276 115 115 109
-0.6543159518442778 0.5713881543993814 0.5156330657306206 74 46 45
-0.6543159518442778 0.5713881543993814 0.5156330657306206 74 46 45
-0.6799085005648504 0.5327763742690675 0.6020617496914404 110 132 143
-0.6150928273045502 0.6499362619849348 0.3398893958279164 176 164 160
-0.61375110153341 0.6533066028669052 0.3317589470855581 110 98 116
-0.6821985675370282 0.5294789119136183 0.6091952631695129 65 76 74
-0.7088477428963579 0.49484342510801943 0.6887197022141822 91 90 116
-0.6838235198378153 0.5272085519473979 0.6142447266291263 164 171 168
-0.7155002330687608 0.4866728827145997 0.7075804847549839 94 117 119
-0.6831406253093729 0.5280712945232937 0.612079100056065 171 180 184
-0.6159718452077358 0.6476937866709137 0.3443026041776995 62 62 62
-0.6226647315924574 0.6318131377729479 0.38059039452963994 242 242 228
-0.6929031017395548 0.5148407938791835 0.6419067317645083 139 138 134
-0.6805500136261978 0.5314877982847165 0.6038605041987476 51 64 72
-0.6130840104665259 0.6549710200087616 0.3268648919996875 102 56 62
-0.6921899467309045 0.5156509744435802 0.6397071133571351 197 220 215
-0.6782732475626475 0.5344956310551064 0.596531024762581 78 102 122
-0.6782732475626475 0.5344956310551064 0.596531024762581 78 102 122
-0.6265271756665242 0.6231096315898873 0.39931526163426706 168 183 179
-0.6816072099948892 0.5297789398484537 0.6070571153928541 123 133 150
-0.6843277075434488 0.5260395825100389 0.6155655054836785 164 178 176
-0.6079553294545358 0.668664486467193 0.293051670334203 116 86 99
-0.6775038473753712 0.5354059099200904 0.5939648271911145 93 121 138
-0.6775038473753712 0.5354059099200904 0.5939648271911145 93 121 138
-0.6938072335338624 0.5132626943369988 0.6444687381197308 214 227 219
-0.6611603356876911 0.5595600363444119 0.539209695037398 126 134 123
-0.6611603356876911 0.5595600363444119 0.539209695037398 126 134 123
-0.6137335566393427 0.6532351374363742 0.3295857348004682 173 155 168
-0.679098372017359 0.5329738857572924 0.5989486602416972 44 53 57
-0.7137143926569982 0.4878821158191449 0.7023695897851098 65 57 57
-0.6248108512464972 0.6266383819920917 0.38985841865829485 185 178 169
-0.6198605303797907 0.6380325188043319 0.36409720318113437 97 89 99
-0.6754838646249917 0.5377419342548282 0.5871201562250922 158 174 167
-0.6754921043624003 0.53770674924435 0.5871322169670667 158 174 167
-0.6780099165993547 0.5341214669858123 0.595247644391444 37 57 62
-0.6345369386672373 0.6060426770886536 0.43513525570940376 55 47 57
-0.6122250319566529 0.6571121297791257 0.31911929027556724 115 118 93
-0.6672431691822134 0.5496782021465086 0.5597022831251997 156 168 156
-0.684101367542237 0.5254728402319996 0.6144219832383809 120 127 122
-0.684101367542237 0.5254728402319996 0.6144219832383809 120 127 122
-0.6770153715968928 0.5353170639245555 0.5919247838512853 69 68 54
-0.6770153715968928 0.5353170639245555 0.5919247838512853 69 68 54
-0.6740416994017523 0.539504173252829 0.5822241686780765 148 164 153
-0.6617174109339211 0.5579976159507869 0.5405286379512514 82 78 67
-0.6114005181865073 0.6592794839882588 0.31304005206688446 144 123 108
-0.6925094504241596 0.5139550970410747 0.6401683011496423 195 213 206
-0.6761655561658461 0.5362636863717128 0.5890198528316949 71 69 69
-0.6765934637152364 0.5356421358728383 0.5903982318782334 60 64 53
-0.6932895985473961 0.5128179844542788 0.6424852916264082 156 163 150
-0.6932895985473961 0.5128179844542788 0.6424852916264082 156 163 150
-0.6211416297978105 0.6347732215826835 0.3695627372862175 201 203 197
-0.6165014631589097 0.6460293326261954 0.3436345534849579 168 163 148
-0.6780508053519294 0.5333959545187665 0.5949925912854745 95 123 140
-0.6846558136309008 0.5241698445289596 0.6158902463193684 187 208 200
-0.6992734349768693 0.5048116259840377 0.6602991225070313 79 78 98
-0.6108793395986771 0.6606605731541606 0.3084829846697763 155 120 106
-0.6108793395986771 0.6606605731541606 0.3084829846697763 155 120 106
-0.609932255845828 0.6632441756982924 0.30208719618324237 139 120 113
-0.609932255845828 0.6632441756982924 0.30208719618324237 139 120 113
-0.668532591618306 0.547094153694055 0.5635727234420481 156 160 148
-0.6613525857630052 0.5581259720037558 0.5388480635748263 87 75 57
-0.6752025671938091 0.5372237523258544 0.58563416026286 90 98 87
-0.6128894799357593 0.6552554924072778 0.3207044326028049 103 48 51
-0.6123555402266317 0.6566714798284328 0.31726005233466653 134 109 89
-0.7176353739738529 0.48153205138307176 0.7132163778243753 84 87 85
-0.6113734453073341 0.6593020634687895 0.3106630359794999 181 167 139
-0.6710020769637424 0.5430461804057374 0.5715914658719631 153 164 154
-0.6229918715826909 0.6301517586716427 0.377748218603272 183 187 176
-0.6616415842648946 0.5571741395782183 0.5394255470242885 116 126 110
-0.6277913734713181 0.6193172383200444 0.40174677283430704 91 118 115
-0.6942521474611575 0.5104666796557681 0.6450044431542444 203 224 221
-0.6756367020303627 0.5359785314554651 0.5866766647024009 175 189 177
